//X Y Z R G B PointSourceId ScanDirectionFlag NumberOfReturns ReturnNumber GpsTime Intensity Classification Nx Ny Nz
14680.00000000 9640.00000000 -110.00000000 19 196 148 0.000000 0.000000 0.000000 0.000000 -60.708740 0.000000 71.000000 -0.052417 0.308112 0.949905
14650.00000000 9640.00000000 -180.00000000 19 196 148 0.000000 0.000000 0.000000 0.000000 -60.708740 0.000000 71.000000 -0.190407 0.193033 0.962540
14650.00000000 9600.00000000 -120.00000000 19 196 148 0.000000 0.000000 0.000000 0.000000 -60.708740 0.000000 71.000000 0.097858 0.088648 0.991244
14680.00000000 9570.00000000 -130.00000000 19 196 148 0.000000 0.000000 0.000000 0.000000 -60.708740 0.000000 71.000000 0.256543 -0.045856 0.965444
14670.00000000 9600.00000000 -110.00000000 19 196 148 0.000000 0.000000 0.000000 0.000000 -60.708740 0.000000 71.000000 -0.181953 -0.038738 0.982544
14650.00000000 9580.00000000 -150.00000000 19 196 148 0.000000 0.000000 0.000000 0.000000 -60.708740 0.000000 71.000000 0.120698 0.115918 0.985898
14800.00000000 9490.00000000 -30.00000000 19 196 148 0.000000 0.000000 0.000000 0.000000 -60.708740 0.000000 71.000000 -0.338797 -0.095077 0.936043
14810.00000000 9490.00000000 -20.00000000 19 196 148 0.000000 0.000000 0.000000 0.000000 -60.708740 0.000000 71.000000 -0.108296 0.524153 0.844710
14750.00000000 9530.00000000 -30.00000000 19 196 148 0.000000 0.000000 0.000000 0.000000 -60.708740 0.000000 71.000000 -0.423730 0.251825 0.870079
14750.00000000 9560.00000000 -100.00000000 19 196 148 0.000000 0.000000 0.000000 0.000000 -60.708740 0.000000 71.000000 -0.334703 0.387145 0.859123
14760.00000000 9560.00000000 -100.00000000 19 196 148 0.000000 0.000000 0.000000 0.000000 -60.708740 0.000000 71.000000 0.090745 0.453725 0.886509
14770.00000000 9490.00000000 -30.00000000 19 196 148 0.000000 0.000000 0.000000 0.000000 -60.708740 0.000000 71.000000 -0.001184 0.242814 0.970072
14740.00000000 9490.00000000 -20.00000000 19 196 148 0.000000 0.000000 0.000000 0.000000 -60.708740 0.000000 71.000000 0.045752 0.359479 0.932031
14750.00000000 9490.00000000 -40.00000000 19 196 148 0.000000 0.000000 0.000000 0.000000 -60.708740 0.000000 71.000000 -0.188839 0.314732 0.930206
14780.00000000 9560.00000000 -110.00000000 19 196 148 0.000000 0.000000 0.000000 0.000000 -60.708740 0.000000 71.000000 0.110586 0.261504 0.958847
14800.00000000 9530.00000000 -130.00000000 19 196 148 0.000000 0.000000 0.000000 0.000000 -60.708740 0.000000 71.000000 -0.377318 0.062664 0.923961
14810.00000000 9550.00000000 -180.00000000 19 196 148 0.000000 0.000000 0.000000 0.000000 -60.708740 0.000000 71.000000 -0.056592 0.196265 0.978916
14780.00000000 9490.00000000 -110.00000000 19 196 148 0.000000 0.000000 0.000000 0.000000 -60.708740 0.000000 71.000000 0.326126 0.397225 0.857820
14780.00000000 9500.00000000 -110.00000000 19 196 148 0.000000 0.000000 0.000000 0.000000 -60.708740 0.000000 71.000000 0.198669 0.284805 0.937772
14780.00000000 9490.00000000 -110.00000000 19 196 148 0.000000 0.000000 0.000000 0.000000 -60.708740 0.000000 71.000000 0.326126 0.397225 0.857820
14790.00000000 9520.00000000 -120.00000000 19 196 148 0.000000 0.000000 0.000000 0.000000 -60.708740 0.000000 71.000000 0.001264 0.362873 0.931838
14800.00000000 9510.00000000 -110.00000000 19 196 148 0.000000 0.000000 0.000000 0.000000 -60.708740 0.000000 71.000000 -0.427637 0.269366 0.862884
14800.00000000 9510.00000000 -110.00000000 19 196 148 0.000000 0.000000 0.000000 0.000000 -60.708740 0.000000 71.000000 -0.427637 0.269366 0.862884
14760.00000000 9530.00000000 -140.00000000 19 196 148 0.000000 0.000000 0.000000 0.000000 -60.708740 0.000000 71.000000 -0.155584 0.357424 0.920892
14740.00000000 9500.00000000 -110.00000000 19 196 148 0.000000 0.000000 0.000000 0.000000 -60.708740 0.000000 71.000000 -0.084357 0.235445 0.968220
14770.00000000 9490.00000000 -120.00000000 19 196 148 0.000000 0.000000 0.000000 0.000000 -60.708740 0.000000 71.000000 -0.283536 0.392704 0.874866
14810.00000000 9480.00000000 -50.00000000 19 196 148 0.000000 0.000000 0.000000 0.000000 -60.708740 0.000000 71.000000 -0.139824 0.350252 0.926160
14780.00000000 9450.00000000 -90.00000000 19 196 148 0.000000 0.000000 0.000000 0.000000 -60.708740 0.000000 71.000000 -0.132772 0.637008 0.759337
14800.00000000 9430.00000000 -70.00000000 19 196 148 0.000000 0.000000 0.000000 0.000000 -60.708740 0.000000 71.000000 0.135853 0.628505 0.765850
14750.00000000 9450.00000000 -20.00000000 19 196 148 0.000000 0.000000 0.000000 0.000000 -60.708740 0.000000 71.000000 -0.291483 0.321075 0.901082
14770.00000000 9480.00000000 -20.00000000 19 196 148 0.000000 0.000000 0.000000 0.000000 -60.708740 0.000000 71.000000 -0.390941 0.311220 0.866203
14750.00000000 9480.00000000 -20.00000000 19 196 148 0.000000 0.000000 0.000000 0.000000 -60.708740 0.000000 71.000000 0.373669 0.463477 0.803468
14760.00000000 9460.00000000 -20.00000000 19 196 148 0.000000 0.000000 0.000000 0.000000 -60.708740 0.000000 71.000000 0.058803 0.686992 0.724282
14810.00000000 9460.00000000 -180.00000000 19 196 148 0.000000 0.000000 0.000000 0.000000 -60.708740 0.000000 71.000000 -0.123761 0.046552 0.991220
14730.00000000 9550.00000000 -100.00000000 19 196 148 0.000000 0.000000 0.000000 0.000000 -60.708740 0.000000 71.000000 -0.361297 0.062201 0.930374
14730.00000000 9500.00000000 -100.00000000 19 196 148 0.000000 0.000000 0.000000 0.000000 -60.708740 0.000000 71.000000 -0.097661 0.333118 0.937814
14660.00000000 9550.00000000 -40.00000000 19 196 148 0.000000 0.000000 0.000000 0.000000 -60.708740 0.000000 71.000000 0.340495 0.553506 0.760062
14670.00000000 9510.00000000 -20.00000000 19 196 148 0.000000 0.000000 0.000000 0.000000 -60.708740 0.000000 71.000000 -0.141670 0.597997 0.788879
14660.00000000 9510.00000000 -30.00000000 19 196 148 0.000000 0.000000 0.000000 0.000000 -60.708740 0.000000 71.000000 -0.070197 0.350983 0.933747
14660.00000000 9500.00000000 -100.00000000 19 196 148 0.000000 0.000000 0.000000 0.000000 -60.708740 0.000000 71.000000 0.199115 0.646738 0.736263
14720.00000000 9560.00000000 -120.00000000 19 196 148 0.000000 0.000000 0.000000 0.000000 -60.708740 0.000000 71.000000 -0.174065 0.355205 0.918439
14710.00000000 9530.00000000 -140.00000000 19 196 148 0.000000 0.000000 0.000000 0.000000 -60.708740 0.000000 71.000000 -0.189822 -0.102975 0.976404
14690.00000000 9540.00000000 -170.00000000 19 196 148 0.000000 0.000000 0.000000 0.000000 -60.708740 0.000000 71.000000 -0.125857 0.323440 0.937841
14720.00000000 9540.00000000 -160.00000000 19 196 148 0.000000 0.000000 0.000000 0.000000 -60.708740 0.000000 71.000000 -0.289203 0.023583 0.956977
14720.00000000 9530.00000000 -160.00000000 19 196 148 0.000000 0.000000 0.000000 0.000000 -60.708740 0.000000 71.000000 0.058077 -0.066843 0.996072
14690.00000000 9530.00000000 -170.00000000 19 196 148 0.000000 0.000000 0.000000 0.000000 -60.708740 0.000000 71.000000 0.061424 0.438160 0.896796
14700.00000000 9530.00000000 -170.00000000 19 196 148 0.000000 0.000000 0.000000 0.000000 -60.708740 0.000000 71.000000 -0.211596 0.082906 0.973835
14720.00000000 9510.00000000 -120.00000000 19 196 148 0.000000 0.000000 0.000000 0.000000 -60.708740 0.000000 71.000000 0.201568 0.516803 0.832037
14720.00000000 9490.00000000 -110.00000000 19 196 148 0.000000 0.000000 0.000000 0.000000 -60.708740 0.000000 71.000000 -0.238314 0.205631 0.949169
14720.00000000 9490.00000000 -110.00000000 19 196 148 0.000000 0.000000 0.000000 0.000000 -60.708740 0.000000 71.000000 -0.238314 0.205631 0.949169
14710.00000000 9500.00000000 -120.00000000 19 196 148 0.000000 0.000000 0.000000 0.000000 -60.708740 0.000000 71.000000 -0.157630 0.111197 0.981218
14690.00000000 9490.00000000 -140.00000000 19 196 148 0.000000 0.000000 0.000000 0.000000 -60.708740 0.000000 71.000000 -0.077248 0.320777 0.944000
14690.00000000 9500.00000000 -150.00000000 19 196 148 0.000000 0.000000 0.000000 0.000000 -60.708740 0.000000 71.000000 -0.142893 0.460432 0.876119
14730.00000000 9520.00000000 -150.00000000 19 196 148 0.000000 0.000000 0.000000 0.000000 -60.708740 0.000000 71.000000 -0.026574 0.325213 0.945267
14650.00000000 9530.00000000 -170.00000000 19 196 148 0.000000 0.000000 0.000000 0.000000 -60.708740 0.000000 71.000000 -0.141549 0.166602 0.975811
14660.00000000 9510.00000000 -110.00000000 19 196 148 0.000000 0.000000 0.000000 0.000000 -60.708740 0.000000 71.000000 -0.168260 0.513714 0.841300
14650.00000000 9490.00000000 -140.00000000 19 196 148 0.000000 0.000000 0.000000 0.000000 -60.708740 0.000000 71.000000 0.230126 0.373772 0.898519
14670.00000000 9500.00000000 -110.00000000 19 196 148 0.000000 0.000000 0.000000 0.000000 -60.708740 0.000000 71.000000 0.131878 0.283738 0.949790
14660.00000000 9500.00000000 -110.00000000 19 196 148 0.000000 0.000000 0.000000 0.000000 -60.708740 0.000000 71.000000 0.243875 0.289513 0.925585
14670.00000000 9520.00000000 -110.00000000 19 196 148 0.000000 0.000000 0.000000 0.000000 -60.708740 0.000000 71.000000 -0.161142 0.315399 0.935177
14660.00000000 9520.00000000 -110.00000000 19 196 148 0.000000 0.000000 0.000000 0.000000 -60.708740 0.000000 71.000000 -0.255047 0.459695 0.850665
14670.00000000 9510.00000000 -110.00000000 19 196 148 0.000000 0.000000 0.000000 0.000000 -60.708740 0.000000 71.000000 0.115878 0.256494 0.959574
14660.00000000 9490.00000000 -150.00000000 19 196 148 0.000000 0.000000 0.000000 0.000000 -60.708740 0.000000 71.000000 0.058565 0.621356 0.781337
14670.00000000 9490.00000000 -150.00000000 19 196 148 0.000000 0.000000 0.000000 0.000000 -60.708740 0.000000 71.000000 -0.073565 0.624584 0.777485
14650.00000000 9520.00000000 -170.00000000 19 196 148 0.000000 0.000000 0.000000 0.000000 -60.708740 0.000000 71.000000 -0.042527 0.021782 0.998858
14720.00000000 9460.00000000 -30.00000000 19 196 148 0.000000 0.000000 0.000000 0.000000 -60.708740 0.000000 71.000000 0.382754 0.573310 0.724441
14720.00000000 9470.00000000 -40.00000000 19 196 148 0.000000 0.000000 0.000000 0.000000 -60.708740 0.000000 71.000000 -0.279886 0.465445 0.839657
14720.00000000 9470.00000000 -40.00000000 19 196 148 0.000000 0.000000 0.000000 0.000000 -60.708740 0.000000 71.000000 -0.279886 0.465445 0.839657
14730.00000000 9440.00000000 -30.00000000 19 196 148 0.000000 0.000000 0.000000 0.000000 -60.708740 0.000000 71.000000 -0.004071 0.555009 0.831835
14650.00000000 9470.00000000 -40.00000000 19 196 148 0.000000 0.000000 0.000000 0.000000 -60.708740 0.000000 71.000000 0.205586 0.537569 0.817774
14730.00000000 9480.00000000 -130.00000000 19 196 148 0.000000 0.000000 0.000000 0.000000 -60.708740 0.000000 71.000000 0.020466 0.530746 0.847284
14690.00000000 9480.00000000 -120.00000000 19 196 148 0.000000 0.000000 0.000000 0.000000 -60.708740 0.000000 71.000000 -0.234158 0.410149 0.881447
14650.00000000 9480.00000000 -140.00000000 19 196 148 0.000000 0.000000 0.000000 0.000000 -60.708740 0.000000 71.000000 0.303660 -0.001229 0.952780
14660.00000000 9480.00000000 -140.00000000 19 196 148 0.000000 0.000000 0.000000 0.000000 -60.708740 0.000000 71.000000 0.382156 0.123679 0.915784
14660.00000000 9480.00000000 -140.00000000 19 196 148 0.000000 0.000000 0.000000 0.000000 -60.708740 0.000000 71.000000 0.382156 0.123679 0.915784
14680.00000000 9480.00000000 -150.00000000 19 196 148 0.000000 0.000000 0.000000 0.000000 -60.708740 0.000000 71.000000 -0.224174 0.218740 0.949684
14650.00000000 9440.00000000 -160.00000000 19 196 148 0.000000 0.000000 0.000000 0.000000 -60.708740 0.000000 71.000000 0.198152 0.284065 0.938106
14780.00000000 9470.00000000 -190.00000000 19 196 148 0.000000 0.000000 0.000000 0.000000 -60.708740 0.000000 71.000000 -0.309190 0.285745 0.907056
14690.00000000 9440.00000000 -200.00000000 19 196 148 0.000000 0.000000 0.000000 0.000000 -60.708740 0.000000 71.000000 0.227376 -0.032482 0.973265
14640.00000000 9660.00000000 -90.00000000 19 196 148 0.000000 0.000000 0.000000 0.000000 -60.708740 0.000000 71.000000 -0.156708 0.174545 0.972099
14620.00000000 9690.00000000 -130.00000000 19 196 148 0.000000 0.000000 0.000000 0.000000 -60.708740 0.000000 71.000000 0.171130 0.178850 0.968879
14610.00000000 9650.00000000 -140.00000000 19 196 148 0.000000 0.000000 0.000000 0.000000 -60.708740 0.000000 71.000000 0.209301 0.054442 0.976335
14620.00000000 9620.00000000 -140.00000000 19 196 148 0.000000 0.000000 0.000000 0.000000 -60.708740 0.000000 71.000000 -0.394396 0.226002 0.890716
14610.00000000 9630.00000000 -110.00000000 19 196 148 0.000000 0.000000 0.000000 0.000000 -60.708740 0.000000 71.000000 -0.228880 0.468369 0.853372
14620.00000000 9640.00000000 -140.00000000 19 196 148 0.000000 0.000000 0.000000 0.000000 -60.708740 0.000000 71.000000 0.081807 0.237871 0.967846
14620.00000000 9630.00000000 -140.00000000 19 196 148 0.000000 0.000000 0.000000 0.000000 -60.708740 0.000000 71.000000 0.241342 0.131760 0.961454
14620.00000000 9650.00000000 -150.00000000 19 196 148 0.000000 0.000000 0.000000 0.000000 -60.708740 0.000000 71.000000 0.067457 0.113191 0.991281
14620.00000000 9590.00000000 -120.00000000 19 196 148 0.000000 0.000000 0.000000 0.000000 -60.708740 0.000000 71.000000 0.420544 0.237959 0.875510
14630.00000000 9600.00000000 -120.00000000 19 196 148 0.000000 0.000000 0.000000 0.000000 -60.708740 0.000000 71.000000 -0.328611 0.368350 0.869674
14620.00000000 9570.00000000 -180.00000000 19 196 148 0.000000 0.000000 0.000000 0.000000 -60.708740 0.000000 71.000000 -0.346601 0.151725 0.925661
14600.00000000 9620.00000000 -130.00000000 19 196 148 0.000000 0.000000 0.000000 0.000000 -60.708740 0.000000 71.000000 0.092613 -0.054675 0.994200
14570.00000000 9570.00000000 -170.00000000 19 196 148 0.000000 0.000000 0.000000 0.000000 -60.708740 0.000000 71.000000 0.270482 0.369111 0.889155
14510.00000000 9570.00000000 -170.00000000 19 196 148 0.000000 0.000000 0.000000 0.000000 -60.708740 0.000000 71.000000 0.343844 0.346901 0.872600
14490.00000000 9570.00000000 -160.00000000 19 196 148 0.000000 0.000000 0.000000 0.000000 -60.708740 0.000000 71.000000 -0.008843 0.344872 0.938608
14510.00000000 9590.00000000 -180.00000000 19 196 148 0.000000 0.000000 0.000000 0.000000 -60.708740 0.000000 71.000000 0.557517 0.425169 0.713026
14550.00000000 9600.00000000 -170.00000000 19 196 148 0.000000 0.000000 0.000000 0.000000 -60.708740 0.000000 71.000000 0.009549 0.552469 0.833478
14530.00000000 9570.00000000 -180.00000000 19 196 148 0.000000 0.000000 0.000000 0.000000 -60.708740 0.000000 71.000000 -0.003481 0.207705 0.978185
14530.00000000 9570.00000000 -180.00000000 19 196 148 0.000000 0.000000 0.000000 0.000000 -60.708740 0.000000 71.000000 -0.003481 0.207705 0.978185
14590.00000000 9620.00000000 -190.00000000 19 196 148 0.000000 0.000000 0.000000 0.000000 -60.708740 0.000000 71.000000 -0.300437 0.294575 0.907173
14590.00000000 9570.00000000 -190.00000000 19 196 148 0.000000 0.000000 0.000000 0.000000 -60.708740 0.000000 71.000000 0.095095 0.234569 0.967437
14600.00000000 9590.00000000 -240.00000000 19 196 148 0.000000 0.000000 0.000000 0.000000 -60.708740 0.000000 71.000000 0.161464 0.252205 0.954108
14540.00000000 9620.00000000 -200.00000000 19 196 148 0.000000 0.000000 0.000000 0.000000 -60.708740 0.000000 71.000000 0.313070 0.328049 0.891275
14530.00000000 9610.00000000 -240.00000000 19 196 148 0.000000 0.000000 0.000000 0.000000 -60.708740 0.000000 71.000000 0.230003 0.547994 0.804239
14540.00000000 9610.00000000 -240.00000000 19 196 148 0.000000 0.000000 0.000000 0.000000 -60.708740 0.000000 71.000000 0.222405 0.331455 0.916883
14540.00000000 9630.00000000 -240.00000000 19 196 148 0.000000 0.000000 0.000000 0.000000 -60.708740 0.000000 71.000000 0.030294 0.238716 0.970617
14550.00000000 9590.00000000 -230.00000000 19 196 148 0.000000 0.000000 0.000000 0.000000 -60.708740 0.000000 71.000000 -0.006772 0.532298 0.846530
14540.00000000 9590.00000000 -190.00000000 19 196 148 0.000000 0.000000 0.000000 0.000000 -60.708740 0.000000 71.000000 0.187892 0.409284 0.892851
14530.00000000 9570.00000000 -220.00000000 19 196 148 0.000000 0.000000 0.000000 0.000000 -60.708740 0.000000 71.000000 0.031402 0.300201 0.953359
14540.00000000 9590.00000000 -230.00000000 19 196 148 0.000000 0.000000 0.000000 0.000000 -60.708740 0.000000 71.000000 -0.203932 0.335134 0.919835
14540.00000000 9570.00000000 -230.00000000 19 196 148 0.000000 0.000000 0.000000 0.000000 -60.708740 0.000000 71.000000 0.376562 0.626507 0.682415
14550.00000000 9590.00000000 -230.00000000 19 196 148 0.000000 0.000000 0.000000 0.000000 -60.708740 0.000000 71.000000 -0.006772 0.532298 0.846530
14550.00000000 9600.00000000 -240.00000000 19 196 148 0.000000 0.000000 0.000000 0.000000 -60.708740 0.000000 71.000000 0.002979 0.012908 0.999912
14500.00000000 9610.00000000 -230.00000000 19 196 148 0.000000 0.000000 0.000000 0.000000 -60.708740 0.000000 71.000000 0.146086 0.730432 0.667179
14510.00000000 9570.00000000 -200.00000000 19 196 148 0.000000 0.000000 0.000000 0.000000 -60.708740 0.000000 71.000000 0.429082 0.474764 0.768432
14510.00000000 9600.00000000 -230.00000000 19 196 148 0.000000 0.000000 0.000000 0.000000 -60.708740 0.000000 71.000000 -0.043531 0.588365 0.807423
14510.00000000 9600.00000000 -230.00000000 19 196 148 0.000000 0.000000 0.000000 0.000000 -60.708740 0.000000 71.000000 -0.043531 0.588365 0.807423
14610.00000000 9520.00000000 -20.00000000 19 196 148 0.000000 0.000000 0.000000 0.000000 -60.708740 0.000000 71.000000 -0.096643 0.446800 0.889398
14570.00000000 9540.00000000 -70.00000000 19 196 148 0.000000 0.000000 0.000000 0.000000 -60.708740 0.000000 71.000000 -0.181662 0.526971 0.830241
14570.00000000 9500.00000000 -50.00000000 19 196 148 0.000000 0.000000 0.000000 0.000000 -60.708740 0.000000 71.000000 0.082519 0.310430 0.947008
14580.00000000 9520.00000000 -60.00000000 19 196 148 0.000000 0.000000 0.000000 0.000000 -60.708740 0.000000 71.000000 0.104355 0.496045 0.862003
14600.00000000 9520.00000000 -60.00000000 19 196 148 0.000000 0.000000 0.000000 0.000000 -60.708740 0.000000 71.000000 0.315093 0.615642 0.722289
14570.00000000 9490.00000000 -90.00000000 19 196 148 0.000000 0.000000 0.000000 0.000000 -60.708740 0.000000 71.000000 0.092192 0.686316 0.721437
14570.00000000 9500.00000000 -100.00000000 19 196 148 0.000000 0.000000 0.000000 0.000000 -60.708740 0.000000 71.000000 0.538579 0.552085 0.636502
14600.00000000 9490.00000000 -70.00000000 19 196 148 0.000000 0.000000 0.000000 0.000000 -60.708740 0.000000 71.000000 0.082924 0.731771 0.676488
14620.00000000 9560.00000000 -170.00000000 19 196 148 0.000000 0.000000 0.000000 0.000000 -60.708740 0.000000 71.000000 -0.324235 0.382628 0.865140
14630.00000000 9530.00000000 -170.00000000 19 196 148 0.000000 0.000000 0.000000 0.000000 -60.708740 0.000000 71.000000 0.111599 0.165559 0.979865
14640.00000000 9560.00000000 -170.00000000 19 196 148 0.000000 0.000000 0.000000 0.000000 -60.708740 0.000000 71.000000 -0.122921 0.142393 0.982148
14640.00000000 9530.00000000 -170.00000000 19 196 148 0.000000 0.000000 0.000000 0.000000 -60.708740 0.000000 71.000000 0.006634 0.465682 0.884928
14640.00000000 9530.00000000 -170.00000000 19 196 148 0.000000 0.000000 0.000000 0.000000 -60.708740 0.000000 71.000000 0.006634 0.465682 0.884928
14620.00000000 9550.00000000 -170.00000000 19 196 148 0.000000 0.000000 0.000000 0.000000 -60.708740 0.000000 71.000000 0.123820 0.123820 0.984549
14630.00000000 9540.00000000 -170.00000000 19 196 148 0.000000 0.000000 0.000000 0.000000 -60.708740 0.000000 71.000000 0.149589 0.014622 0.988640
14640.00000000 9540.00000000 -180.00000000 19 196 148 0.000000 0.000000 0.000000 0.000000 -60.708740 0.000000 71.000000 0.303105 0.311976 0.900443
14620.00000000 9540.00000000 -170.00000000 19 196 148 0.000000 0.000000 0.000000 0.000000 -60.708740 0.000000 71.000000 0.057481 -0.057481 0.996691
14640.00000000 9490.00000000 -140.00000000 19 196 148 0.000000 0.000000 0.000000 0.000000 -60.708740 0.000000 71.000000 0.280228 0.046495 0.958807
14640.00000000 9510.00000000 -130.00000000 19 196 148 0.000000 0.000000 0.000000 0.000000 -60.708740 0.000000 71.000000 -0.086603 0.143547 0.985847
14630.00000000 9500.00000000 -140.00000000 19 196 148 0.000000 0.000000 0.000000 0.000000 -60.708740 0.000000 71.000000 0.006908 0.645183 0.763997
14600.00000000 9540.00000000 -160.00000000 19 196 148 0.000000 0.000000 0.000000 0.000000 -60.708740 0.000000 71.000000 -0.129088 0.609831 0.781948
14600.00000000 9510.00000000 -180.00000000 19 196 148 0.000000 0.000000 0.000000 0.000000 -60.708740 0.000000 71.000000 0.333413 0.303511 0.892590
14600.00000000 9500.00000000 -180.00000000 19 196 148 0.000000 0.000000 0.000000 0.000000 -60.708740 0.000000 71.000000 0.443972 0.513291 0.734452
14600.00000000 9510.00000000 -180.00000000 19 196 148 0.000000 0.000000 0.000000 0.000000 -60.708740 0.000000 71.000000 0.333413 0.303511 0.892590
14630.00000000 9400.00000000 -30.00000000 19 196 148 0.000000 0.000000 0.000000 0.000000 -60.708740 0.000000 71.000000 0.206727 0.441712 0.873014
14610.00000000 9430.00000000 -40.00000000 19 196 148 0.000000 0.000000 0.000000 0.000000 -60.708740 0.000000 71.000000 0.182818 0.428526 0.884841
14580.00000000 9460.00000000 -20.00000000 19 196 148 0.000000 0.000000 0.000000 0.000000 -60.708740 0.000000 71.000000 0.585019 0.524325 0.618737
14600.00000000 9430.00000000 -80.00000000 19 196 148 0.000000 0.000000 0.000000 0.000000 -60.708740 0.000000 71.000000 0.227428 0.799866 0.555420
14630.00000000 9460.00000000 -170.00000000 19 196 148 0.000000 0.000000 0.000000 0.000000 -60.708740 0.000000 71.000000 0.125627 0.419226 0.899148
14560.00000000 9510.00000000 -40.00000000 19 196 148 0.000000 0.000000 0.000000 0.000000 -60.708740 0.000000 71.000000 0.291626 0.478766 0.828093
14560.00000000 9520.00000000 -50.00000000 19 196 148 0.000000 0.000000 0.000000 0.000000 -60.708740 0.000000 71.000000 0.343252 0.714159 0.610045
14560.00000000 9520.00000000 -50.00000000 19 196 148 0.000000 0.000000 0.000000 0.000000 -60.708740 0.000000 71.000000 0.343252 0.714159 0.610045
14550.00000000 9490.00000000 -30.00000000 19 196 148 0.000000 0.000000 0.000000 0.000000 -60.708740 0.000000 71.000000 0.229435 0.336216 0.913410
14530.00000000 9520.00000000 -30.00000000 19 196 148 0.000000 0.000000 0.000000 0.000000 -60.708740 0.000000 71.000000 0.234131 0.862507 0.448625
14560.00000000 9560.00000000 -160.00000000 19 196 148 0.000000 0.000000 0.000000 0.000000 -60.708740 0.000000 71.000000 -0.142472 0.201515 0.969068
14530.00000000 9520.00000000 -170.00000000 19 196 148 0.000000 0.000000 0.000000 0.000000 -60.708740 0.000000 71.000000 0.257641 0.544949 0.797905
14530.00000000 9510.00000000 -160.00000000 19 196 148 0.000000 0.000000 0.000000 0.000000 -60.708740 0.000000 71.000000 0.545375 0.585899 0.599406
14520.00000000 9560.00000000 -170.00000000 19 196 148 0.000000 0.000000 0.000000 0.000000 -60.708740 0.000000 71.000000 0.315553 0.189332 0.929828
14540.00000000 9460.00000000 -20.00000000 19 196 148 0.000000 0.000000 0.000000 0.000000 -60.708740 0.000000 71.000000 0.670291 0.498938 0.549336
14540.00000000 9450.00000000 -70.00000000 19 196 148 0.000000 0.000000 0.000000 0.000000 -60.708740 0.000000 71.000000 0.510598 0.359190 0.781199
14540.00000000 9430.00000000 -60.00000000 19 196 148 0.000000 0.000000 0.000000 0.000000 -60.708740 0.000000 71.000000 0.528648 0.698750 0.481954
14530.00000000 9440.00000000 -60.00000000 19 196 148 0.000000 0.000000 0.000000 0.000000 -60.708740 0.000000 71.000000 0.248345 0.678598 0.691252
14550.00000000 9440.00000000 -80.00000000 19 196 148 0.000000 0.000000 0.000000 0.000000 -60.708740 0.000000 71.000000 0.230909 0.496989 0.836471
14540.00000000 9420.00000000 -70.00000000 19 196 148 0.000000 0.000000 0.000000 0.000000 -60.708740 0.000000 71.000000 0.208061 0.775221 0.596442
14510.00000000 9430.00000000 -60.00000000 19 196 148 0.000000 0.000000 0.000000 0.000000 -60.708740 0.000000 71.000000 0.149525 0.741584 0.653984
14620.00000000 9540.00000000 -210.00000000 19 196 148 0.000000 0.000000 0.000000 0.000000 -60.708740 0.000000 71.000000 0.039802 -0.063467 0.997190
14610.00000000 9550.00000000 -230.00000000 19 196 148 0.000000 0.000000 0.000000 0.000000 -60.708740 0.000000 71.000000 -0.136622 0.401415 0.905649
14620.00000000 9530.00000000 -210.00000000 19 196 148 0.000000 0.000000 0.000000 0.000000 -60.708740 0.000000 71.000000 0.281264 0.408974 0.868119
14620.00000000 9540.00000000 -210.00000000 19 196 148 0.000000 0.000000 0.000000 0.000000 -60.708740 0.000000 71.000000 0.039802 -0.063467 0.997190
14590.00000000 9540.00000000 -200.00000000 19 196 148 0.000000 0.000000 0.000000 0.000000 -60.708740 0.000000 71.000000 0.406708 0.305415 0.860994
14580.00000000 9530.00000000 -220.00000000 19 196 148 0.000000 0.000000 0.000000 0.000000 -60.708740 0.000000 71.000000 0.086520 0.102671 0.990946
14560.00000000 9550.00000000 -200.00000000 19 196 148 0.000000 0.000000 0.000000 0.000000 -60.708740 0.000000 71.000000 0.492361 0.442960 0.749245
14560.00000000 9560.00000000 -200.00000000 19 196 148 0.000000 0.000000 0.000000 0.000000 -60.708740 0.000000 71.000000 0.112821 -0.016430 0.993480
14560.00000000 9560.00000000 -220.00000000 19 196 148 0.000000 0.000000 0.000000 0.000000 -60.708740 0.000000 71.000000 0.425751 0.477950 0.768309
14560.00000000 9540.00000000 -190.00000000 19 196 148 0.000000 0.000000 0.000000 0.000000 -60.708740 0.000000 71.000000 -0.009724 0.707073 0.707073
14530.00000000 9560.00000000 -220.00000000 19 196 148 0.000000 0.000000 0.000000 0.000000 -60.708740 0.000000 71.000000 0.190183 0.292910 0.937035
14530.00000000 9560.00000000 -220.00000000 19 196 148 0.000000 0.000000 0.000000 0.000000 -60.708740 0.000000 71.000000 0.190183 0.292910 0.937035
14550.00000000 9560.00000000 -200.00000000 19 196 148 0.000000 0.000000 0.000000 0.000000 -60.708740 0.000000 71.000000 0.069910 0.111168 0.991340
14560.00000000 9550.00000000 -200.00000000 19 196 148 0.000000 0.000000 0.000000 0.000000 -60.708740 0.000000 71.000000 0.492361 0.442960 0.749245
14560.00000000 9520.00000000 -230.00000000 19 196 148 0.000000 0.000000 0.000000 0.000000 -60.708740 0.000000 71.000000 -0.013939 0.086853 0.996124
14510.00000000 9530.00000000 -210.00000000 19 196 148 0.000000 0.000000 0.000000 0.000000 -60.708740 0.000000 71.000000 0.129934 0.106093 0.985830
14770.00000000 9380.00000000 -30.00000000 19 196 148 0.000000 0.000000 0.000000 0.000000 -60.708740 0.000000 71.000000 -0.171909 0.521706 0.835626
14680.00000000 9280.00000000 -20.00000000 19 196 148 0.000000 0.000000 0.000000 0.000000 -60.708740 0.000000 71.000000 0.612149 0.271890 0.742529
14620.00000000 9360.00000000 -20.00000000 19 196 148 0.000000 0.000000 0.000000 0.000000 -60.708740 0.000000 71.000000 0.145839 0.626958 0.765280
14610.00000000 9340.00000000 -40.00000000 19 196 148 0.000000 0.000000 0.000000 0.000000 -60.708740 0.000000 71.000000 0.462921 0.376423 0.802502
14580.00000000 9370.00000000 -60.00000000 19 196 148 0.000000 0.000000 0.000000 0.000000 -60.708740 0.000000 71.000000 0.202822 0.639430 0.741615
14590.00000000 9380.00000000 -80.00000000 19 196 148 0.000000 0.000000 0.000000 0.000000 -60.708740 0.000000 71.000000 0.133533 0.688668 0.712674
14570.00000000 9350.00000000 -40.00000000 19 196 148 0.000000 0.000000 0.000000 0.000000 -60.708740 0.000000 71.000000 0.445690 0.829960 0.335449
14590.00000000 9320.00000000 -20.00000000 19 196 148 0.000000 0.000000 0.000000 0.000000 -60.708740 0.000000 71.000000 0.636524 0.541974 0.548727
14530.00000000 9380.00000000 -20.00000000 19 196 148 0.000000 0.000000 0.000000 0.000000 -60.708740 0.000000 71.000000 0.676057 0.376684 0.633290
14560.00000000 9360.00000000 -20.00000000 19 196 148 0.000000 0.000000 0.000000 0.000000 -60.708740 0.000000 71.000000 0.233364 0.750210 0.618649
14990.00000000 9920.00000000 0.00000000 19 196 148 0.000000 0.000000 0.000000 0.000000 -60.708740 0.000000 71.000000 0.556270 0.709037 -0.433393
15040.00000000 9920.00000000 30.00000000 19 196 148 0.000000 0.000000 0.000000 0.000000 -60.708740 0.000000 71.000000 0.448421 0.822370 -0.350181
15050.00000000 9910.00000000 -10.00000000 19 196 148 0.000000 0.000000 0.000000 0.000000 -60.708740 0.000000 71.000000 0.354369 0.703840 -0.615656
15100.00000000 9850.00000000 20.00000000 19 196 148 0.000000 0.000000 0.000000 0.000000 -60.708740 0.000000 71.000000 0.529825 0.804897 -0.267257
15050.00000000 9900.00000000 10.00000000 19 196 148 0.000000 0.000000 0.000000 0.000000 -60.708740 0.000000 71.000000 0.566174 0.653536 -0.502332
15050.00000000 9810.00000000 30.00000000 19 196 148 0.000000 0.000000 0.000000 0.000000 -60.708740 0.000000 71.000000 0.504209 0.823801 -0.259086
15060.00000000 9770.00000000 20.00000000 19 196 148 0.000000 0.000000 0.000000 0.000000 -60.708740 0.000000 71.000000 0.552577 0.626930 -0.549197
15050.00000000 9740.00000000 0.00000000 19 196 148 0.000000 0.000000 0.000000 0.000000 -60.708740 0.000000 71.000000 0.723123 0.616829 -0.310830
15020.00000000 9750.00000000 10.00000000 19 196 148 0.000000 0.000000 0.000000 0.000000 -60.708740 0.000000 71.000000 0.785433 0.393526 -0.477737
14780.00000000 9770.00000000 380.00000000 19 196 148 0.000000 0.000000 0.000000 0.000000 -60.708740 0.000000 71.000000 0.464504 0.256014 0.847758
15170.00000000 9660.00000000 320.00000000 19 196 148 0.000000 0.000000 0.000000 0.000000 -60.708740 0.000000 71.000000 0.439027 0.785713 0.435787
15160.00000000 9660.00000000 340.00000000 19 196 148 0.000000 0.000000 0.000000 0.000000 -60.708740 0.000000 71.000000 0.344629 0.879031 0.329447
15200.00000000 9620.00000000 320.00000000 19 196 148 0.000000 0.000000 0.000000 0.000000 -60.708740 0.000000 71.000000 0.755203 0.499646 0.424290
15220.00000000 9580.00000000 330.00000000 19 196 148 0.000000 0.000000 0.000000 0.000000 -60.708740 0.000000 71.000000 0.634741 0.750983 0.182010
15220.00000000 9580.00000000 340.00000000 19 196 148 0.000000 0.000000 0.000000 0.000000 -60.708740 0.000000 71.000000 0.633405 0.757365 -0.158729
15220.00000000 9540.00000000 340.00000000 19 196 148 0.000000 0.000000 0.000000 0.000000 -60.708740 0.000000 71.000000 0.703158 0.509413 0.496052
15190.00000000 9530.00000000 330.00000000 19 196 148 0.000000 0.000000 0.000000 0.000000 -60.708740 0.000000 71.000000 0.720061 0.684429 -0.114319
15190.00000000 9530.00000000 330.00000000 19 196 148 0.000000 0.000000 0.000000 0.000000 -60.708740 0.000000 71.000000 0.720061 0.684429 -0.114319
15160.00000000 9500.00000000 350.00000000 19 196 148 0.000000 0.000000 0.000000 0.000000 -60.708740 0.000000 71.000000 0.864145 0.484905 0.134615
15200.00000000 9420.00000000 360.00000000 19 196 148 0.000000 0.000000 0.000000 0.000000 -60.708740 0.000000 71.000000 0.588998 0.735030 0.335875
15210.00000000 9420.00000000 330.00000000 19 196 148 0.000000 0.000000 0.000000 0.000000 -60.708740 0.000000 71.000000 0.769852 0.627998 0.113779
15450.00000000 9610.00000000 210.00000000 19 196 148 0.000000 0.000000 0.000000 0.000000 -60.708740 0.000000 71.000000 0.802119 0.451694 -0.390611
15470.00000000 9570.00000000 220.00000000 19 196 148 0.000000 0.000000 0.000000 0.000000 -60.708740 0.000000 71.000000 0.806815 0.521688 -0.277294
15420.00000000 9610.00000000 220.00000000 19 196 148 0.000000 0.000000 0.000000 0.000000 -60.708740 0.000000 71.000000 0.819179 0.482703 -0.309747
15420.00000000 9620.00000000 230.00000000 19 196 148 0.000000 0.000000 0.000000 0.000000 -60.708740 0.000000 71.000000 0.600663 0.794612 -0.088290
15410.00000000 9620.00000000 210.00000000 19 196 148 0.000000 0.000000 0.000000 0.000000 -60.708740 0.000000 71.000000 0.495130 0.827286 -0.265414
15410.00000000 9620.00000000 210.00000000 19 196 148 0.000000 0.000000 0.000000 0.000000 -60.708740 0.000000 71.000000 0.495130 0.827286 -0.265414
15420.00000000 9600.00000000 200.00000000 19 196 148 0.000000 0.000000 0.000000 0.000000 -60.708740 0.000000 71.000000 0.741180 0.660972 -0.117341
15410.00000000 9590.00000000 160.00000000 19 196 148 0.000000 0.000000 0.000000 0.000000 -60.708740 0.000000 71.000000 0.635807 0.756626 -0.152533
15360.00000000 9570.00000000 250.00000000 19 196 148 0.000000 0.000000 0.000000 0.000000 -60.708740 0.000000 71.000000 0.778245 0.605973 -0.164716
15370.00000000 9520.00000000 250.00000000 19 196 148 0.000000 0.000000 0.000000 0.000000 -60.708740 0.000000 71.000000 0.785828 0.400205 -0.471497
15340.00000000 9420.00000000 0.00000000 19 196 148 0.000000 0.000000 0.000000 0.000000 -60.708740 0.000000 71.000000 -0.532158 -0.423420 0.733159
15250.00000000 9630.00000000 270.00000000 19 196 148 0.000000 0.000000 0.000000 0.000000 -60.708740 0.000000 71.000000 0.763469 0.619649 -0.182070
15200.00000000 9610.00000000 310.00000000 19 196 148 0.000000 0.000000 0.000000 0.000000 -60.708740 0.000000 71.000000 0.777972 0.488872 0.394670
15170.00000000 9580.00000000 280.00000000 19 196 148 0.000000 0.000000 0.000000 0.000000 -60.708740 0.000000 71.000000 0.439122 0.898144 0.022553
15250.00000000 9580.00000000 140.00000000 19 196 148 0.000000 0.000000 0.000000 0.000000 -60.708740 0.000000 71.000000 0.521964 0.820669 -0.232497
15220.00000000 9570.00000000 110.00000000 19 196 148 0.000000 0.000000 0.000000 0.000000 -60.708740 0.000000 71.000000 0.712592 0.587518 -0.383450
15310.00000000 9490.00000000 310.00000000 19 196 148 0.000000 0.000000 0.000000 0.000000 -60.708740 0.000000 71.000000 0.788091 0.552136 -0.272135
15260.00000000 9540.00000000 280.00000000 19 196 148 0.000000 0.000000 0.000000 0.000000 -60.708740 0.000000 71.000000 0.834653 0.467841 -0.290652
15240.00000000 9510.00000000 290.00000000 19 196 148 0.000000 0.000000 0.000000 0.000000 -60.708740 0.000000 71.000000 0.673795 0.730068 -0.114027
15240.00000000 9510.00000000 290.00000000 19 196 148 0.000000 0.000000 0.000000 0.000000 -60.708740 0.000000 71.000000 0.673795 0.730068 -0.114027
15270.00000000 9520.00000000 290.00000000 19 196 148 0.000000 0.000000 0.000000 0.000000 -60.708740 0.000000 71.000000 0.775715 0.596822 0.205109
15270.00000000 9520.00000000 280.00000000 19 196 148 0.000000 0.000000 0.000000 0.000000 -60.708740 0.000000 71.000000 0.808134 0.575556 0.125121
15280.00000000 9450.00000000 290.00000000 19 196 148 0.000000 0.000000 0.000000 0.000000 -60.708740 0.000000 71.000000 0.554612 0.766811 -0.323121
15300.00000000 9470.00000000 280.00000000 19 196 148 0.000000 0.000000 0.000000 0.000000 -60.708740 0.000000 71.000000 0.419505 0.906931 0.038621
15280.00000000 9450.00000000 270.00000000 19 196 148 0.000000 0.000000 0.000000 0.000000 -60.708740 0.000000 71.000000 0.762527 0.556177 -0.330482
15300.00000000 9470.00000000 250.00000000 19 196 148 0.000000 0.000000 0.000000 0.000000 -60.708740 0.000000 71.000000 0.769703 0.637432 0.035178
15280.00000000 9450.00000000 270.00000000 19 196 148 0.000000 0.000000 0.000000 0.000000 -60.708740 0.000000 71.000000 0.762527 0.556177 -0.330482
15290.00000000 9440.00000000 280.00000000 19 196 148 0.000000 0.000000 0.000000 0.000000 -60.708740 0.000000 71.000000 0.560557 0.737059 -0.377518
15300.00000000 9400.00000000 260.00000000 19 196 148 0.000000 0.000000 0.000000 0.000000 -60.708740 0.000000 71.000000 0.824127 0.332487 -0.458549
15260.00000000 9480.00000000 290.00000000 19 196 148 0.000000 0.000000 0.000000 0.000000 -60.708740 0.000000 71.000000 0.790679 0.533986 -0.299476
15260.00000000 9480.00000000 290.00000000 19 196 148 0.000000 0.000000 0.000000 0.000000 -60.708740 0.000000 71.000000 0.790679 0.533986 -0.299476
15160.00000000 9560.00000000 270.00000000 19 196 148 0.000000 0.000000 0.000000 0.000000 -60.708740 0.000000 71.000000 0.703746 0.691586 -0.162637
15180.00000000 9460.00000000 280.00000000 19 196 148 0.000000 0.000000 0.000000 0.000000 -60.708740 0.000000 71.000000 0.714665 0.651280 -0.255124
15190.00000000 9400.00000000 270.00000000 19 196 148 0.000000 0.000000 0.000000 0.000000 -60.708740 0.000000 71.000000 0.589659 0.807122 -0.029274
15220.00000000 9400.00000000 180.00000000 19 196 148 0.000000 0.000000 0.000000 0.000000 -60.708740 0.000000 71.000000 0.705184 0.210154 -0.677164
15190.00000000 9480.00000000 200.00000000 19 196 148 0.000000 0.000000 0.000000 0.000000 -60.708740 0.000000 71.000000 0.463367 0.590500 -0.660758
15290.00000000 9530.00000000 100.00000000 19 196 148 0.000000 0.000000 0.000000 0.000000 -60.708740 0.000000 71.000000 0.810648 0.556089 -0.183343
15280.00000000 9530.00000000 100.00000000 19 196 148 0.000000 0.000000 0.000000 0.000000 -60.708740 0.000000 71.000000 0.549940 0.754342 -0.358515
15250.00000000 9550.00000000 120.00000000 19 196 148 0.000000 0.000000 0.000000 0.000000 -60.708740 0.000000 71.000000 0.555785 0.630115 -0.542271
15260.00000000 9500.00000000 110.00000000 19 196 148 0.000000 0.000000 0.000000 0.000000 -60.708740 0.000000 71.000000 -0.568462 -0.338486 0.749852
15160.00000000 9560.00000000 120.00000000 19 196 148 0.000000 0.000000 0.000000 0.000000 -60.708740 0.000000 71.000000 0.576024 0.596295 -0.559132
15300.00000000 9360.00000000 330.00000000 19 196 148 0.000000 0.000000 0.000000 0.000000 -60.708740 0.000000 71.000000 0.790141 0.601802 -0.116240
15300.00000000 9370.00000000 340.00000000 19 196 148 0.000000 0.000000 0.000000 0.000000 -60.708740 0.000000 71.000000 0.822532 0.539834 0.178942
15280.00000000 9270.00000000 340.00000000 19 196 148 0.000000 0.000000 0.000000 0.000000 -60.708740 0.000000 71.000000 0.813380 0.563567 0.144237
15270.00000000 9310.00000000 320.00000000 19 196 148 0.000000 0.000000 0.000000 0.000000 -60.708740 0.000000 71.000000 0.827180 0.455343 -0.329296
15260.00000000 9280.00000000 320.00000000 19 196 148 0.000000 0.000000 0.000000 0.000000 -60.708740 0.000000 71.000000 0.567764 0.821356 0.054945
15260.00000000 9280.00000000 320.00000000 19 196 148 0.000000 0.000000 0.000000 0.000000 -60.708740 0.000000 71.000000 0.567764 0.821356 0.054945
15260.00000000 9270.00000000 320.00000000 19 196 148 0.000000 0.000000 0.000000 0.000000 -60.708740 0.000000 71.000000 0.705005 0.705005 -0.077042
15210.00000000 9380.00000000 360.00000000 19 196 148 0.000000 0.000000 0.000000 0.000000 -60.708740 0.000000 71.000000 0.615891 0.787050 0.035074
15210.00000000 9380.00000000 340.00000000 19 196 148 0.000000 0.000000 0.000000 0.000000 -60.708740 0.000000 71.000000 0.397197 0.916094 0.054832
15180.00000000 9320.00000000 370.00000000 19 196 148 0.000000 0.000000 0.000000 0.000000 -60.708740 0.000000 71.000000 0.370161 0.885689 0.280243
15180.00000000 9320.00000000 360.00000000 19 196 148 0.000000 0.000000 0.000000 0.000000 -60.708740 0.000000 71.000000 0.559310 0.793005 0.241485
15280.00000000 9360.00000000 280.00000000 19 196 148 0.000000 0.000000 0.000000 0.000000 -60.708740 0.000000 71.000000 0.841099 0.418200 -0.343018
15280.00000000 9320.00000000 250.00000000 19 196 148 0.000000 0.000000 0.000000 0.000000 -60.708740 0.000000 71.000000 0.778549 0.552467 -0.297727
15260.00000000 9330.00000000 290.00000000 19 196 148 0.000000 0.000000 0.000000 0.000000 -60.708740 0.000000 71.000000 0.538710 0.836228 0.102543
15260.00000000 9320.00000000 310.00000000 19 196 148 0.000000 0.000000 0.000000 0.000000 -60.708740 0.000000 71.000000 0.664814 0.711742 0.226819
15300.00000000 9260.00000000 290.00000000 19 196 148 0.000000 0.000000 0.000000 0.000000 -60.708740 0.000000 71.000000 0.571952 0.820027 -0.020673
15210.00000000 9370.00000000 300.00000000 19 196 148 0.000000 0.000000 0.000000 0.000000 -60.708740 0.000000 71.000000 0.420991 0.903691 0.078164
15170.00000000 9350.00000000 310.00000000 19 196 148 0.000000 0.000000 0.000000 0.000000 -60.708740 0.000000 71.000000 0.400462 0.916268 -0.009072
15220.00000000 9370.00000000 120.00000000 19 196 148 0.000000 0.000000 0.000000 0.000000 -60.708740 0.000000 71.000000 -0.370589 -0.443753 0.815933
15260.00000000 9160.00000000 10.00000000 19 196 148 0.000000 0.000000 0.000000 0.000000 -60.708740 0.000000 71.000000 -0.214681 0.236559 0.947603
15210.00000000 9160.00000000 20.00000000 19 196 148 0.000000 0.000000 0.000000 0.000000 -60.708740 0.000000 71.000000 0.159930 -0.132655 0.978174
15200.00000000 9150.00000000 10.00000000 19 196 148 0.000000 0.000000 0.000000 0.000000 -60.708740 0.000000 71.000000 -0.178152 -0.083622 0.980443
15160.00000000 9190.00000000 60.00000000 19 196 148 0.000000 0.000000 0.000000 0.000000 -60.708740 0.000000 71.000000 0.049846 -0.039241 0.997986
15200.00000000 9160.00000000 10.00000000 19 196 148 0.000000 0.000000 0.000000 0.000000 -60.708740 0.000000 71.000000 -0.391884 -0.176563 0.902913
15200.00000000 9090.00000000 0.00000000 19 196 148 0.000000 0.000000 0.000000 0.000000 -60.708740 0.000000 71.000000 0.290036 0.147041 0.945652
15170.00000000 9090.00000000 50.00000000 19 196 148 0.000000 0.000000 0.000000 0.000000 -60.708740 0.000000 71.000000 -0.038459 0.404484 0.913736
15580.00000000 8420.00000000 410.00000000 19 196 148 0.000000 0.000000 0.000000 0.000000 -60.708740 0.000000 71.000000 0.675597 0.703682 0.219998
15540.00000000 8440.00000000 420.00000000 19 196 148 0.000000 0.000000 0.000000 0.000000 -60.708740 0.000000 71.000000 0.441362 0.887010 0.135694
15520.00000000 8470.00000000 460.00000000 19 196 148 0.000000 0.000000 0.000000 0.000000 -60.708740 0.000000 71.000000 0.472650 0.876166 -0.094530
15340.00000000 8980.00000000 430.00000000 19 196 148 0.000000 0.000000 0.000000 0.000000 -60.708740 0.000000 71.000000 0.074763 0.409160 0.909395
15350.00000000 8970.00000000 430.00000000 19 196 148 0.000000 0.000000 0.000000 0.000000 -60.708740 0.000000 71.000000 0.258180 0.080125 0.962769
15340.00000000 8930.00000000 390.00000000 19 196 148 0.000000 0.000000 0.000000 0.000000 -60.708740 0.000000 71.000000 0.483424 0.835566 0.261018
15350.00000000 8770.00000000 470.00000000 19 196 148 0.000000 0.000000 0.000000 0.000000 -60.708740 0.000000 71.000000 0.570019 0.811577 -0.128144
15410.00000000 8770.00000000 480.00000000 19 196 148 0.000000 0.000000 0.000000 0.000000 -60.708740 0.000000 71.000000 -0.417562 -0.620521 0.663774
15340.00000000 8730.00000000 480.00000000 19 196 148 0.000000 0.000000 0.000000 0.000000 -60.708740 0.000000 71.000000 0.730713 0.353151 -0.584245
15180.00000000 8980.00000000 510.00000000 19 196 148 0.000000 0.000000 0.000000 0.000000 -60.708740 0.000000 71.000000 0.721379 0.275493 -0.635387
15210.00000000 8940.00000000 490.00000000 19 196 148 0.000000 0.000000 0.000000 0.000000 -60.708740 0.000000 71.000000 0.743472 0.411946 -0.526831
15310.00000000 9000.00000000 430.00000000 19 196 148 0.000000 0.000000 0.000000 0.000000 -60.708740 0.000000 71.000000 -0.260984 0.249699 0.932490
15310.00000000 8940.00000000 410.00000000 19 196 148 0.000000 0.000000 0.000000 0.000000 -60.708740 0.000000 71.000000 0.556973 0.743175 -0.370771
15310.00000000 8950.00000000 430.00000000 19 196 148 0.000000 0.000000 0.000000 0.000000 -60.708740 0.000000 71.000000 -0.631969 -0.107538 0.767496
15300.00000000 8900.00000000 420.00000000 19 196 148 0.000000 0.000000 0.000000 0.000000 -60.708740 0.000000 71.000000 0.692557 0.542364 -0.475611
15280.00000000 8900.00000000 410.00000000 19 196 148 0.000000 0.000000 0.000000 0.000000 -60.708740 0.000000 71.000000 0.486236 0.869588 0.085972
15240.00000000 8910.00000000 460.00000000 19 196 148 0.000000 0.000000 0.000000 0.000000 -60.708740 0.000000 71.000000 0.745326 0.532376 -0.401329
15240.00000000 8900.00000000 440.00000000 19 196 148 0.000000 0.000000 0.000000 0.000000 -60.708740 0.000000 71.000000 0.718479 0.635270 -0.283231
15270.00000000 8910.00000000 400.00000000 19 196 148 0.000000 0.000000 0.000000 0.000000 -60.708740 0.000000 71.000000 0.538441 0.821989 0.185513
15270.00000000 8910.00000000 380.00000000 19 196 148 0.000000 0.000000 0.000000 0.000000 -60.708740 0.000000 71.000000 0.590427 0.795663 0.135337
15180.00000000 8990.00000000 470.00000000 19 196 148 0.000000 0.000000 0.000000 0.000000 -60.708740 0.000000 71.000000 -0.268596 -0.449707 0.851833
15180.00000000 9060.00000000 390.00000000 19 196 148 0.000000 0.000000 0.000000 0.000000 -60.708740 0.000000 71.000000 0.532378 0.721447 -0.442819
15230.00000000 8910.00000000 460.00000000 19 196 148 0.000000 0.000000 0.000000 0.000000 -60.708740 0.000000 71.000000 0.679552 0.724161 -0.117472
15210.00000000 8910.00000000 450.00000000 19 196 148 0.000000 0.000000 0.000000 0.000000 -60.708740 0.000000 71.000000 0.701150 0.467988 -0.537937
15210.00000000 8920.00000000 470.00000000 19 196 148 0.000000 0.000000 0.000000 0.000000 -60.708740 0.000000 71.000000 0.847264 0.503017 -0.170640
15210.00000000 8930.00000000 480.00000000 19 196 148 0.000000 0.000000 0.000000 0.000000 -60.708740 0.000000 71.000000 0.798268 0.414454 -0.437031
15210.00000000 8920.00000000 440.00000000 19 196 148 0.000000 0.000000 0.000000 0.000000 -60.708740 0.000000 71.000000 0.356839 0.798488 -0.484853
15200.00000000 8910.00000000 430.00000000 19 196 148 0.000000 0.000000 0.000000 0.000000 -60.708740 0.000000 71.000000 0.777365 0.529509 -0.339594
15180.00000000 8950.00000000 430.00000000 19 196 148 0.000000 0.000000 0.000000 0.000000 -60.708740 0.000000 71.000000 0.694416 0.496968 -0.520394
15190.00000000 8900.00000000 470.00000000 19 196 148 0.000000 0.000000 0.000000 0.000000 -60.708740 0.000000 71.000000 0.566153 0.730255 -0.382358
15190.00000000 8920.00000000 400.00000000 19 196 148 0.000000 0.000000 0.000000 0.000000 -60.708740 0.000000 71.000000 0.529572 0.848133 -0.014975
15230.00000000 8900.00000000 350.00000000 19 196 148 0.000000 0.000000 0.000000 0.000000 -60.708740 0.000000 71.000000 0.574173 0.500086 0.648259
15170.00000000 8920.00000000 320.00000000 19 196 148 0.000000 0.000000 0.000000 0.000000 -60.708740 0.000000 71.000000 0.769061 0.598159 0.225281
15240.00000000 8810.00000000 560.00000000 19 196 148 0.000000 0.000000 0.000000 0.000000 -60.708740 0.000000 71.000000 0.456238 0.725003 -0.515963
15310.00000000 8840.00000000 500.00000000 19 196 148 0.000000 0.000000 0.000000 0.000000 -60.708740 0.000000 71.000000 0.858021 0.414377 -0.303465
15160.00000000 8890.00000000 580.00000000 19 196 148 0.000000 0.000000 0.000000 0.000000 -60.708740 0.000000 71.000000 0.593660 0.667240 -0.449843
15210.00000000 8870.00000000 510.00000000 19 196 148 0.000000 0.000000 0.000000 0.000000 -60.708740 0.000000 71.000000 0.689613 0.579940 -0.433709
15200.00000000 8850.00000000 530.00000000 19 196 148 0.000000 0.000000 0.000000 0.000000 -60.708740 0.000000 71.000000 -0.345386 -0.479084 0.806962
15200.00000000 8820.00000000 530.00000000 19 196 148 0.000000 0.000000 0.000000 0.000000 -60.708740 0.000000 71.000000 0.777537 0.373412 -0.505965
15230.00000000 8840.00000000 500.00000000 19 196 148 0.000000 0.000000 0.000000 0.000000 -60.708740 0.000000 71.000000 0.775222 0.616892 -0.135925
15200.00000000 8830.00000000 520.00000000 19 196 148 0.000000 0.000000 0.000000 0.000000 -60.708740 0.000000 71.000000 0.842860 0.325615 -0.428441
15180.00000000 8860.00000000 550.00000000 19 196 148 0.000000 0.000000 0.000000 0.000000 -60.708740 0.000000 71.000000 0.608369 0.690803 -0.390741
15160.00000000 8870.00000000 550.00000000 19 196 148 0.000000 0.000000 0.000000 0.000000 -60.708740 0.000000 71.000000 0.805344 0.097222 -0.584781
15160.00000000 8870.00000000 550.00000000 19 196 148 0.000000 0.000000 0.000000 0.000000 -60.708740 0.000000 71.000000 0.805344 0.097222 -0.584781
15190.00000000 8870.00000000 520.00000000 19 196 148 0.000000 0.000000 0.000000 0.000000 -60.708740 0.000000 71.000000 0.766894 0.120152 -0.630426
15160.00000000 8820.00000000 540.00000000 19 196 148 0.000000 0.000000 0.000000 0.000000 -60.708740 0.000000 71.000000 0.928258 0.260140 -0.265826
15160.00000000 8840.00000000 520.00000000 19 196 148 0.000000 0.000000 0.000000 0.000000 -60.708740 0.000000 71.000000 0.821670 0.320151 -0.471553
15210.00000000 8770.00000000 490.00000000 19 196 148 0.000000 0.000000 0.000000 0.000000 -60.708740 0.000000 71.000000 0.752758 0.298866 -0.586544
15200.00000000 8790.00000000 490.00000000 19 196 148 0.000000 0.000000 0.000000 0.000000 -60.708740 0.000000 71.000000 0.761732 0.287836 -0.580443
15290.00000000 8870.00000000 440.00000000 19 196 148 0.000000 0.000000 0.000000 0.000000 -60.708740 0.000000 71.000000 0.615284 0.632050 -0.471103
