//X Y Z R G B PointSourceId ScanDirectionFlag NumberOfReturns ReturnNumber GpsTime Intensity Classification Nx Ny Nz
-6090.00000000 -3260.00000000 90.00000000 35 242 117 0.000000 0.000000 0.000000 0.000000 -60.708740 0.000000 124.000000 0.709095 -0.697301 0.104669
-6140.00000000 -3310.00000000 120.00000000 35 242 117 0.000000 0.000000 0.000000 0.000000 -60.708740 0.000000 124.000000 0.717632 -0.593395 0.364537
-6140.00000000 -3310.00000000 120.00000000 35 242 117 0.000000 0.000000 0.000000 0.000000 -60.708740 0.000000 124.000000 0.717632 -0.593395 0.364537
-6120.00000000 -3280.00000000 80.00000000 35 242 117 0.000000 0.000000 0.000000 0.000000 -60.708740 0.000000 124.000000 0.781840 -0.553473 0.287045
-6110.00000000 -3270.00000000 30.00000000 35 242 117 0.000000 0.000000 0.000000 0.000000 -60.708740 0.000000 124.000000 0.834990 -0.548787 -0.040291
-6110.00000000 -3250.00000000 40.00000000 35 242 117 0.000000 0.000000 0.000000 0.000000 -60.708740 0.000000 124.000000 0.626293 -0.646334 0.435900
-6110.00000000 -3270.00000000 40.00000000 35 242 117 0.000000 0.000000 0.000000 0.000000 -60.708740 0.000000 124.000000 0.851389 -0.500210 0.157883
-6110.00000000 -3280.00000000 10.00000000 35 242 117 0.000000 0.000000 0.000000 0.000000 -60.708740 0.000000 124.000000 0.738900 -0.665158 0.107664
-6150.00000000 -3300.00000000 50.00000000 35 242 117 0.000000 0.000000 0.000000 0.000000 -60.708740 0.000000 124.000000 0.815340 -0.578850 -0.012374
-6120.00000000 -3290.00000000 30.00000000 35 242 117 0.000000 0.000000 0.000000 0.000000 -60.708740 0.000000 124.000000 0.829276 -0.556136 -0.054910
-6140.00000000 -3300.00000000 60.00000000 35 242 117 0.000000 0.000000 0.000000 0.000000 -60.708740 0.000000 124.000000 0.769934 -0.565893 0.294902
-6140.00000000 -3300.00000000 0.00000000 35 242 117 0.000000 0.000000 0.000000 0.000000 -60.708740 0.000000 124.000000 0.831360 -0.543077 0.117934
-6120.00000000 -3290.00000000 -10.00000000 35 242 117 0.000000 0.000000 0.000000 0.000000 -60.708740 0.000000 124.000000 0.799106 -0.580214 -0.157422
-6140.00000000 -3330.00000000 30.00000000 35 242 117 0.000000 0.000000 0.000000 0.000000 -60.708740 0.000000 124.000000 0.738260 -0.579250 0.345603
-6180.00000000 -3320.00000000 130.00000000 35 242 117 0.000000 0.000000 0.000000 0.000000 -60.708740 0.000000 124.000000 0.825411 -0.500202 -0.261716
-6180.00000000 -3320.00000000 130.00000000 35 242 117 0.000000 0.000000 0.000000 0.000000 -60.708740 0.000000 124.000000 0.825411 -0.500202 -0.261716
-6160.00000000 -3320.00000000 80.00000000 35 242 117 0.000000 0.000000 0.000000 0.000000 -60.708740 0.000000 124.000000 0.881559 -0.472026 0.006648
-6220.00000000 -3360.00000000 110.00000000 35 242 117 0.000000 0.000000 0.000000 0.000000 -60.708740 0.000000 124.000000 0.926745 -0.351144 0.133572
-6210.00000000 -3360.00000000 100.00000000 35 242 117 0.000000 0.000000 0.000000 0.000000 -60.708740 0.000000 124.000000 0.922088 -0.323514 0.212351
-6230.00000000 -3370.00000000 90.00000000 35 242 117 0.000000 0.000000 0.000000 0.000000 -60.708740 0.000000 124.000000 0.941708 -0.304869 0.142272
-6210.00000000 -3350.00000000 10.00000000 35 242 117 0.000000 0.000000 0.000000 0.000000 -60.708740 0.000000 124.000000 0.886074 -0.433611 0.163873
-6210.00000000 -3350.00000000 0.00000000 35 242 117 0.000000 0.000000 0.000000 0.000000 -60.708740 0.000000 124.000000 0.909345 -0.399666 0.115583
-6210.00000000 -3360.00000000 10.00000000 35 242 117 0.000000 0.000000 0.000000 0.000000 -60.708740 0.000000 124.000000 0.884370 -0.338983 0.320904
-6210.00000000 -3370.00000000 10.00000000 35 242 117 0.000000 0.000000 0.000000 0.000000 -60.708740 0.000000 124.000000 0.755073 -0.515940 0.404562
-6210.00000000 -3370.00000000 10.00000000 35 242 117 0.000000 0.000000 0.000000 0.000000 -60.708740 0.000000 124.000000 0.755073 -0.515940 0.404562
-6240.00000000 -3380.00000000 290.00000000 35 242 117 0.000000 0.000000 0.000000 0.000000 -60.708740 0.000000 124.000000 0.961533 -0.229561 -0.150854
-6250.00000000 -3390.00000000 150.00000000 35 242 117 0.000000 0.000000 0.000000 0.000000 -60.708740 0.000000 124.000000 0.972049 -0.177084 0.154152
-6240.00000000 -3380.00000000 140.00000000 35 242 117 0.000000 0.000000 0.000000 0.000000 -60.708740 0.000000 124.000000 0.811663 -0.414637 0.411435
-6260.00000000 -3430.00000000 570.00000000 35 242 117 0.000000 0.000000 0.000000 0.000000 -60.708740 0.000000 124.000000 0.979495 -0.114295 0.165912
-6240.00000000 -3410.00000000 610.00000000 35 242 117 0.000000 0.000000 0.000000 0.000000 -60.708740 0.000000 124.000000 -0.747996 0.514556 -0.419207
-6260.00000000 -3440.00000000 500.00000000 35 242 117 0.000000 0.000000 0.000000 0.000000 -60.708740 0.000000 124.000000 0.952522 -0.139881 0.270436
-6260.00000000 -3440.00000000 500.00000000 35 242 117 0.000000 0.000000 0.000000 0.000000 -60.708740 0.000000 124.000000 0.952522 -0.139881 0.270436
-6260.00000000 -3460.00000000 540.00000000 35 242 117 0.000000 0.000000 0.000000 0.000000 -60.708740 0.000000 124.000000 0.974366 -0.093092 0.204803
-6270.00000000 -3450.00000000 530.00000000 35 242 117 0.000000 0.000000 0.000000 0.000000 -60.708740 0.000000 124.000000 0.823611 -0.369752 0.430055
-6270.00000000 -3450.00000000 530.00000000 35 242 117 0.000000 0.000000 0.000000 0.000000 -60.708740 0.000000 124.000000 0.823611 -0.369752 0.430055
-6280.00000000 -3500.00000000 600.00000000 35 242 117 0.000000 0.000000 0.000000 0.000000 -60.708740 0.000000 124.000000 0.779004 -0.490724 0.390312
-6280.00000000 -3540.00000000 620.00000000 35 242 117 0.000000 0.000000 0.000000 0.000000 -60.708740 0.000000 124.000000 0.860270 -0.338239 0.381484
-6290.00000000 -3520.00000000 580.00000000 35 242 117 0.000000 0.000000 0.000000 0.000000 -60.708740 0.000000 124.000000 0.821133 -0.392301 0.414537
-6300.00000000 -3570.00000000 640.00000000 35 242 117 0.000000 0.000000 0.000000 0.000000 -60.708740 0.000000 124.000000 0.866026 -0.243334 0.436792
-6300.00000000 -3570.00000000 640.00000000 35 242 117 0.000000 0.000000 0.000000 0.000000 -60.708740 0.000000 124.000000 0.866026 -0.243334 0.436792
-6310.00000000 -3560.00000000 650.00000000 35 242 117 0.000000 0.000000 0.000000 0.000000 -60.708740 0.000000 124.000000 0.832862 -0.417218 0.363688
-6280.00000000 -3570.00000000 550.00000000 35 242 117 0.000000 0.000000 0.000000 0.000000 -60.708740 0.000000 124.000000 0.868882 -0.249331 0.427641
-6300.00000000 -3510.00000000 550.00000000 35 242 117 0.000000 0.000000 0.000000 0.000000 -60.708740 0.000000 124.000000 0.817789 -0.387374 0.425633
-6290.00000000 -3560.00000000 520.00000000 35 242 117 0.000000 0.000000 0.000000 0.000000 -60.708740 0.000000 124.000000 0.915135 -0.091650 0.392592
-6240.00000000 -3410.00000000 420.00000000 35 242 117 0.000000 0.000000 0.000000 0.000000 -60.708740 0.000000 124.000000 0.941960 -0.197219 0.271693
-6250.00000000 -3420.00000000 420.00000000 35 242 117 0.000000 0.000000 0.000000 0.000000 -60.708740 0.000000 124.000000 0.764999 -0.453758 0.457034
-6260.00000000 -3450.00000000 420.00000000 35 242 117 0.000000 0.000000 0.000000 0.000000 -60.708740 0.000000 124.000000 0.813972 -0.358403 0.457162
-6240.00000000 -3440.00000000 320.00000000 35 242 117 0.000000 0.000000 0.000000 0.000000 -60.708740 0.000000 124.000000 0.985045 -0.142431 0.096949
-6270.00000000 -3480.00000000 370.00000000 35 242 117 0.000000 0.000000 0.000000 0.000000 -60.708740 0.000000 124.000000 0.750767 -0.534860 0.387651
-6270.00000000 -3490.00000000 450.00000000 35 242 117 0.000000 0.000000 0.000000 0.000000 -60.708740 0.000000 124.000000 0.927213 -0.145527 0.345106
-6280.00000000 -3500.00000000 480.00000000 35 242 117 0.000000 0.000000 0.000000 0.000000 -60.708740 0.000000 124.000000 0.971242 -0.013141 0.237733
-6300.00000000 -3510.00000000 460.00000000 35 242 117 0.000000 0.000000 0.000000 0.000000 -60.708740 0.000000 124.000000 0.813279 -0.364464 0.453590
-6290.00000000 -3570.00000000 410.00000000 35 242 117 0.000000 0.000000 0.000000 0.000000 -60.708740 0.000000 124.000000 0.882724 -0.133052 0.450661
-6280.00000000 -3520.00000000 360.00000000 35 242 117 0.000000 0.000000 0.000000 0.000000 -60.708740 0.000000 124.000000 0.873927 -0.274143 0.401370
-6290.00000000 -3500.00000000 330.00000000 35 242 117 0.000000 0.000000 0.000000 0.000000 -60.708740 0.000000 124.000000 0.731509 -0.557262 0.392878
-6290.00000000 -3500.00000000 330.00000000 35 242 117 0.000000 0.000000 0.000000 0.000000 -60.708740 0.000000 124.000000 0.731509 -0.557262 0.392878
-6330.00000000 -3570.00000000 450.00000000 35 242 117 0.000000 0.000000 0.000000 0.000000 -60.708740 0.000000 124.000000 0.846042 -0.315131 0.430007
-6280.00000000 -3650.00000000 580.00000000 35 242 117 0.000000 0.000000 0.000000 0.000000 -60.708740 0.000000 124.000000 0.927973 -0.011520 0.372469
-6300.00000000 -3610.00000000 630.00000000 35 242 117 0.000000 0.000000 0.000000 0.000000 -60.708740 0.000000 124.000000 0.907156 -0.224975 0.355605
-6300.00000000 -3600.00000000 630.00000000 35 242 117 0.000000 0.000000 0.000000 0.000000 -60.708740 0.000000 124.000000 0.894373 -0.249833 0.371054
-6310.00000000 -3630.00000000 600.00000000 35 242 117 0.000000 0.000000 0.000000 0.000000 -60.708740 0.000000 124.000000 0.857997 -0.315780 0.405122
-6280.00000000 -3640.00000000 530.00000000 35 242 117 0.000000 0.000000 0.000000 0.000000 -60.708740 0.000000 124.000000 0.928107 -0.024594 0.371502
-6310.00000000 -3660.00000000 540.00000000 35 242 117 0.000000 0.000000 0.000000 0.000000 -60.708740 0.000000 124.000000 0.889504 -0.288528 0.354307
-6280.00000000 -3710.00000000 460.00000000 35 242 117 0.000000 0.000000 0.000000 0.000000 -60.708740 0.000000 124.000000 0.916586 0.065951 0.394361
-6290.00000000 -3670.00000000 410.00000000 35 242 117 0.000000 0.000000 0.000000 0.000000 -60.708740 0.000000 124.000000 0.923565 0.131149 0.360315
-6290.00000000 -3720.00000000 460.00000000 35 242 117 0.000000 0.000000 0.000000 0.000000 -60.708740 0.000000 124.000000 0.919979 -0.071181 0.385451
-6260.00000000 -3450.00000000 300.00000000 35 242 117 0.000000 0.000000 0.000000 0.000000 -60.708740 0.000000 124.000000 0.987803 -0.073822 0.137097
-6270.00000000 -3470.00000000 270.00000000 35 242 117 0.000000 0.000000 0.000000 0.000000 -60.708740 0.000000 124.000000 0.927444 -0.139600 0.346928
-6260.00000000 -3440.00000000 160.00000000 35 242 117 0.000000 0.000000 0.000000 0.000000 -60.708740 0.000000 124.000000 0.931031 -0.226772 0.285929
-6240.00000000 -3410.00000000 190.00000000 35 242 117 0.000000 0.000000 0.000000 0.000000 -60.708740 0.000000 124.000000 0.966654 -0.253609 -0.035530
-6280.00000000 -3480.00000000 220.00000000 35 242 117 0.000000 0.000000 0.000000 0.000000 -60.708740 0.000000 124.000000 0.995059 -0.063231 0.076543
-6270.00000000 -3480.00000000 150.00000000 35 242 117 0.000000 0.000000 0.000000 0.000000 -60.708740 0.000000 124.000000 0.960311 -0.145820 0.237779
-6280.00000000 -3490.00000000 270.00000000 35 242 117 0.000000 0.000000 0.000000 0.000000 -60.708740 0.000000 124.000000 0.687808 -0.665362 0.290194
-6280.00000000 -3490.00000000 270.00000000 35 242 117 0.000000 0.000000 0.000000 0.000000 -60.708740 0.000000 124.000000 0.687808 -0.665362 0.290194
-6290.00000000 -3490.00000000 310.00000000 35 242 117 0.000000 0.000000 0.000000 0.000000 -60.708740 0.000000 124.000000 0.942330 -0.097024 0.320313
-6300.00000000 -3510.00000000 270.00000000 35 242 117 0.000000 0.000000 0.000000 0.000000 -60.708740 0.000000 124.000000 0.955448 -0.031224 0.293504
-6290.00000000 -3510.00000000 270.00000000 35 242 117 0.000000 0.000000 0.000000 0.000000 -60.708740 0.000000 124.000000 0.949391 -0.087495 0.301663
-6300.00000000 -3560.00000000 310.00000000 35 242 117 0.000000 0.000000 0.000000 0.000000 -60.708740 0.000000 124.000000 0.898456 -0.093039 0.429093
-6290.00000000 -3530.00000000 210.00000000 35 242 117 0.000000 0.000000 0.000000 0.000000 -60.708740 0.000000 124.000000 0.894505 -0.184120 0.407384
-6290.00000000 -3570.00000000 190.00000000 35 242 117 0.000000 0.000000 0.000000 0.000000 -60.708740 0.000000 124.000000 0.830983 -0.433625 0.348477
-6270.00000000 -3440.00000000 140.00000000 35 242 117 0.000000 0.000000 0.000000 0.000000 -60.708740 0.000000 124.000000 0.917746 -0.252128 -0.306876
-6260.00000000 -3420.00000000 80.00000000 35 242 117 0.000000 0.000000 0.000000 0.000000 -60.708740 0.000000 124.000000 0.983586 -0.148443 0.102583
-6300.00000000 -3480.00000000 130.00000000 35 242 117 0.000000 0.000000 0.000000 0.000000 -60.708740 0.000000 124.000000 0.934173 -0.132284 0.331393
-6250.00000000 -3430.00000000 40.00000000 35 242 117 0.000000 0.000000 0.000000 0.000000 -60.708740 0.000000 124.000000 0.825224 -0.359551 0.435579
-6250.00000000 -3420.00000000 10.00000000 35 242 117 0.000000 0.000000 0.000000 0.000000 -60.708740 0.000000 124.000000 0.967223 -0.200160 0.156254
-6250.00000000 -3420.00000000 10.00000000 35 242 117 0.000000 0.000000 0.000000 0.000000 -60.708740 0.000000 124.000000 0.967223 -0.200160 0.156254
-6290.00000000 -3480.00000000 60.00000000 35 242 117 0.000000 0.000000 0.000000 0.000000 -60.708740 0.000000 124.000000 0.973102 -0.093448 -0.210569
-6280.00000000 -3530.00000000 130.00000000 35 242 117 0.000000 0.000000 0.000000 0.000000 -60.708740 0.000000 124.000000 0.917359 -0.135028 0.374460
-6290.00000000 -3550.00000000 140.00000000 35 242 117 0.000000 0.000000 0.000000 0.000000 -60.708740 0.000000 124.000000 0.893394 -0.206168 0.399176
-6300.00000000 -3540.00000000 70.00000000 35 242 117 0.000000 0.000000 0.000000 0.000000 -60.708740 0.000000 124.000000 0.976799 0.005849 0.214077
-6290.00000000 -3560.00000000 60.00000000 35 242 117 0.000000 0.000000 0.000000 0.000000 -60.708740 0.000000 124.000000 0.880976 -0.231051 0.412911
-6310.00000000 -3630.00000000 240.00000000 35 242 117 0.000000 0.000000 0.000000 0.000000 -60.708740 0.000000 124.000000 0.926106 0.113540 0.359772
-6310.00000000 -3640.00000000 230.00000000 35 242 117 0.000000 0.000000 0.000000 0.000000 -60.708740 0.000000 124.000000 0.917887 -0.147142 0.368556
-6330.00000000 -3620.00000000 250.00000000 35 242 117 0.000000 0.000000 0.000000 0.000000 -60.708740 0.000000 124.000000 0.941184 0.157092 0.299157
-6320.00000000 -3620.00000000 90.00000000 35 242 117 0.000000 0.000000 0.000000 0.000000 -60.708740 0.000000 124.000000 0.837592 -0.416439 0.353580
-6310.00000000 -3680.00000000 110.00000000 35 242 117 0.000000 0.000000 0.000000 0.000000 -60.708740 0.000000 124.000000 0.909648 0.127155 0.395438
-6300.00000000 -3670.00000000 100.00000000 35 242 117 0.000000 0.000000 0.000000 0.000000 -60.708740 0.000000 124.000000 0.914515 0.043801 0.402174
-6300.00000000 -3670.00000000 100.00000000 35 242 117 0.000000 0.000000 0.000000 0.000000 -60.708740 0.000000 124.000000 0.914515 0.043801 0.402174
-5580.00000000 -3770.00000000 710.00000000 35 242 117 0.000000 0.000000 0.000000 0.000000 -60.708740 0.000000 124.000000 0.760926 -0.516518 0.392684
-5570.00000000 -3740.00000000 710.00000000 35 242 117 0.000000 0.000000 0.000000 0.000000 -60.708740 0.000000 124.000000 0.910218 -0.069182 0.408310
-5570.00000000 -3740.00000000 710.00000000 35 242 117 0.000000 0.000000 0.000000 0.000000 -60.708740 0.000000 124.000000 0.910218 -0.069182 0.408310
-5590.00000000 -3760.00000000 660.00000000 35 242 117 0.000000 0.000000 0.000000 0.000000 -60.708740 0.000000 124.000000 0.795564 -0.453455 0.401816
-5590.00000000 -3760.00000000 660.00000000 35 242 117 0.000000 0.000000 0.000000 0.000000 -60.708740 0.000000 124.000000 0.795564 -0.453455 0.401816
-5600.00000000 -3800.00000000 660.00000000 35 242 117 0.000000 0.000000 0.000000 0.000000 -60.708740 0.000000 124.000000 0.652181 -0.675065 0.344888
-5610.00000000 -3810.00000000 670.00000000 35 242 117 0.000000 0.000000 0.000000 0.000000 -60.708740 0.000000 124.000000 -0.563120 0.809391 0.166683
-5600.00000000 -3830.00000000 710.00000000 35 242 117 0.000000 0.000000 0.000000 0.000000 -60.708740 0.000000 124.000000 -0.468942 0.883107 -0.014696
-5630.00000000 -3840.00000000 710.00000000 35 242 117 0.000000 0.000000 0.000000 0.000000 -60.708740 0.000000 124.000000 0.631737 -0.618332 0.467519
-5630.00000000 -3850.00000000 690.00000000 35 242 117 0.000000 0.000000 0.000000 0.000000 -60.708740 0.000000 124.000000 -0.484165 0.800549 -0.353137
-5620.00000000 -3850.00000000 680.00000000 35 242 117 0.000000 0.000000 0.000000 0.000000 -60.708740 0.000000 124.000000 -0.452985 0.878472 0.151960
-5650.00000000 -3860.00000000 710.00000000 35 242 117 0.000000 0.000000 0.000000 0.000000 -60.708740 0.000000 124.000000 -0.354032 0.917072 0.183414
-5650.00000000 -3850.00000000 690.00000000 35 242 117 0.000000 0.000000 0.000000 0.000000 -60.708740 0.000000 124.000000 -0.262136 0.954069 0.145040
-5650.00000000 -3850.00000000 690.00000000 35 242 117 0.000000 0.000000 0.000000 0.000000 -60.708740 0.000000 124.000000 -0.262136 0.954069 0.145040
-5690.00000000 -3900.00000000 710.00000000 35 242 117 0.000000 0.000000 0.000000 0.000000 -60.708740 0.000000 124.000000 -0.149982 0.981588 0.118278
-5650.00000000 -3880.00000000 720.00000000 35 242 117 0.000000 0.000000 0.000000 0.000000 -60.708740 0.000000 124.000000 -0.172051 0.962699 -0.208826
-5670.00000000 -3880.00000000 700.00000000 35 242 117 0.000000 0.000000 0.000000 0.000000 -60.708740 0.000000 124.000000 -0.346127 0.910937 0.224476
-5710.00000000 -3860.00000000 660.00000000 35 242 117 0.000000 0.000000 0.000000 0.000000 -60.708740 0.000000 124.000000 -0.297957 0.890875 0.342875
-5720.00000000 -3890.00000000 700.00000000 35 242 117 0.000000 0.000000 0.000000 0.000000 -60.708740 0.000000 124.000000 -0.188408 0.907521 -0.375377
-5690.00000000 -3920.00000000 730.00000000 35 242 117 0.000000 0.000000 0.000000 0.000000 -60.708740 0.000000 124.000000 0.059747 0.993159 -0.100330
-5730.00000000 -3940.00000000 700.00000000 35 242 117 0.000000 0.000000 0.000000 0.000000 -60.708740 0.000000 124.000000 -0.092914 0.974982 -0.201934
-5730.00000000 -3940.00000000 700.00000000 35 242 117 0.000000 0.000000 0.000000 0.000000 -60.708740 0.000000 124.000000 -0.092914 0.974982 -0.201934
-5710.00000000 -3940.00000000 660.00000000 35 242 117 0.000000 0.000000 0.000000 0.000000 -60.708740 0.000000 124.000000 -0.025510 0.968161 -0.249025
-5720.00000000 -3930.00000000 660.00000000 35 242 117 0.000000 0.000000 0.000000 0.000000 -60.708740 0.000000 124.000000 0.024820 0.996050 -0.085252
-5560.00000000 -3770.00000000 530.00000000 35 242 117 0.000000 0.000000 0.000000 0.000000 -60.708740 0.000000 124.000000 0.815796 -0.394328 0.423064
-5600.00000000 -3820.00000000 600.00000000 35 242 117 0.000000 0.000000 0.000000 0.000000 -60.708740 0.000000 124.000000 -0.560952 0.773891 -0.293983
-5600.00000000 -3820.00000000 600.00000000 35 242 117 0.000000 0.000000 0.000000 0.000000 -60.708740 0.000000 124.000000 -0.560952 0.773891 -0.293983
-5620.00000000 -3810.00000000 620.00000000 35 242 117 0.000000 0.000000 0.000000 0.000000 -60.708740 0.000000 124.000000 -0.553566 0.829637 0.072575
-5610.00000000 -3790.00000000 600.00000000 35 242 117 0.000000 0.000000 0.000000 0.000000 -60.708740 0.000000 124.000000 0.761249 -0.446927 0.469846
-5620.00000000 -3760.00000000 560.00000000 35 242 117 0.000000 0.000000 0.000000 0.000000 -60.708740 0.000000 124.000000 0.770057 -0.503061 0.392355
-5620.00000000 -3810.00000000 520.00000000 35 242 117 0.000000 0.000000 0.000000 0.000000 -60.708740 0.000000 124.000000 -0.568569 0.800265 0.190539
-5620.00000000 -3810.00000000 520.00000000 35 242 117 0.000000 0.000000 0.000000 0.000000 -60.708740 0.000000 124.000000 -0.568569 0.800265 0.190539
-5620.00000000 -3810.00000000 520.00000000 35 242 117 0.000000 0.000000 0.000000 0.000000 -60.708740 0.000000 124.000000 -0.568569 0.800265 0.190539
-5600.00000000 -3840.00000000 590.00000000 35 242 117 0.000000 0.000000 0.000000 0.000000 -60.708740 0.000000 124.000000 -0.582983 0.766252 -0.270163
-5620.00000000 -3840.00000000 600.00000000 35 242 117 0.000000 0.000000 0.000000 0.000000 -60.708740 0.000000 124.000000 -0.742996 0.515649 -0.426687
-5620.00000000 -3840.00000000 600.00000000 35 242 117 0.000000 0.000000 0.000000 0.000000 -60.708740 0.000000 124.000000 -0.742996 0.515649 -0.426687
-5630.00000000 -3840.00000000 590.00000000 35 242 117 0.000000 0.000000 0.000000 0.000000 -60.708740 0.000000 124.000000 -0.462709 0.857594 0.224572
-5640.00000000 -3860.00000000 600.00000000 35 242 117 0.000000 0.000000 0.000000 0.000000 -60.708740 0.000000 124.000000 -0.516513 0.788362 -0.334214
-5630.00000000 -3860.00000000 500.00000000 35 242 117 0.000000 0.000000 0.000000 0.000000 -60.708740 0.000000 124.000000 -0.455979 0.815043 -0.357475
-5650.00000000 -3820.00000000 560.00000000 35 242 117 0.000000 0.000000 0.000000 0.000000 -60.708740 0.000000 124.000000 -0.422798 0.902061 0.086763
-5650.00000000 -3860.00000000 600.00000000 35 242 117 0.000000 0.000000 0.000000 0.000000 -60.708740 0.000000 124.000000 -0.320626 0.934355 -0.155497
-5650.00000000 -3870.00000000 590.00000000 35 242 117 0.000000 0.000000 0.000000 0.000000 -60.708740 0.000000 124.000000 -0.407183 0.815962 -0.410376
-5660.00000000 -3870.00000000 580.00000000 35 242 117 0.000000 0.000000 0.000000 0.000000 -60.708740 0.000000 124.000000 -0.310683 0.949802 -0.036775
-5670.00000000 -3880.00000000 600.00000000 35 242 117 0.000000 0.000000 0.000000 0.000000 -60.708740 0.000000 124.000000 -0.221462 0.937385 0.268819
-5670.00000000 -3890.00000000 550.00000000 35 242 117 0.000000 0.000000 0.000000 0.000000 -60.708740 0.000000 124.000000 -0.423597 0.797265 -0.430040
-5680.00000000 -3890.00000000 550.00000000 35 242 117 0.000000 0.000000 0.000000 0.000000 -60.708740 0.000000 124.000000 -0.318016 0.934773 -0.158319
-5670.00000000 -3880.00000000 550.00000000 35 242 117 0.000000 0.000000 0.000000 0.000000 -60.708740 0.000000 124.000000 -0.354611 0.890269 -0.285784
-5670.00000000 -3890.00000000 550.00000000 35 242 117 0.000000 0.000000 0.000000 0.000000 -60.708740 0.000000 124.000000 -0.423597 0.797265 -0.430040
-5610.00000000 -3750.00000000 410.00000000 35 242 117 0.000000 0.000000 0.000000 0.000000 -60.708740 0.000000 124.000000 0.893319 -0.178085 0.412635
-5630.00000000 -3800.00000000 470.00000000 35 242 117 0.000000 0.000000 0.000000 0.000000 -60.708740 0.000000 124.000000 -0.635563 0.715609 0.289765
-5610.00000000 -3820.00000000 410.00000000 35 242 117 0.000000 0.000000 0.000000 0.000000 -60.708740 0.000000 124.000000 0.856952 -0.328884 0.396823
-5590.00000000 -3770.00000000 390.00000000 35 242 117 0.000000 0.000000 0.000000 0.000000 -60.708740 0.000000 124.000000 0.850393 -0.331140 0.408873
-5590.00000000 -3750.00000000 360.00000000 35 242 117 0.000000 0.000000 0.000000 0.000000 -60.708740 0.000000 124.000000 0.869337 -0.213234 0.445852
-5570.00000000 -3790.00000000 330.00000000 35 242 117 0.000000 0.000000 0.000000 0.000000 -60.708740 0.000000 124.000000 0.780874 -0.452939 0.430211
-5630.00000000 -3810.00000000 360.00000000 35 242 117 0.000000 0.000000 0.000000 0.000000 -60.708740 0.000000 124.000000 0.772560 -0.486306 0.408237
-5620.00000000 -3820.00000000 330.00000000 35 242 117 0.000000 0.000000 0.000000 0.000000 -60.708740 0.000000 124.000000 0.748072 -0.528725 0.401045
-5640.00000000 -3830.00000000 430.00000000 35 242 117 0.000000 0.000000 0.000000 0.000000 -60.708740 0.000000 124.000000 0.574235 -0.674684 0.463741
-5620.00000000 -3870.00000000 460.00000000 35 242 117 0.000000 0.000000 0.000000 0.000000 -60.708740 0.000000 124.000000 0.659784 -0.609674 0.439299
-5640.00000000 -3890.00000000 450.00000000 35 242 117 0.000000 0.000000 0.000000 0.000000 -60.708740 0.000000 124.000000 -0.408108 0.908280 -0.092065
-5630.00000000 -3850.00000000 380.00000000 35 242 117 0.000000 0.000000 0.000000 0.000000 -60.708740 0.000000 124.000000 -0.365572 0.925481 0.099207
-5620.00000000 -3850.00000000 400.00000000 35 242 117 0.000000 0.000000 0.000000 0.000000 -60.708740 0.000000 124.000000 -0.441152 0.865741 0.236385
-5630.00000000 -3840.00000000 340.00000000 35 242 117 0.000000 0.000000 0.000000 0.000000 -60.708740 0.000000 124.000000 -0.381278 0.886657 -0.261661
-5640.00000000 -3870.00000000 340.00000000 35 242 117 0.000000 0.000000 0.000000 0.000000 -60.708740 0.000000 124.000000 -0.207821 0.978048 0.015264
-5650.00000000 -3870.00000000 450.00000000 35 242 117 0.000000 0.000000 0.000000 0.000000 -60.708740 0.000000 124.000000 -0.281283 0.942640 0.179747
-5660.00000000 -3870.00000000 450.00000000 35 242 117 0.000000 0.000000 0.000000 0.000000 -60.708740 0.000000 124.000000 -0.470050 0.825338 0.312842
-5650.00000000 -3870.00000000 440.00000000 35 242 117 0.000000 0.000000 0.000000 0.000000 -60.708740 0.000000 124.000000 -0.288921 0.949312 -0.123823
-5690.00000000 -3900.00000000 360.00000000 35 242 117 0.000000 0.000000 0.000000 0.000000 -60.708740 0.000000 124.000000 -0.135260 0.990011 0.039782
-5660.00000000 -3870.00000000 360.00000000 35 242 117 0.000000 0.000000 0.000000 0.000000 -60.708740 0.000000 124.000000 -0.345880 0.902233 -0.257571
-5660.00000000 -3870.00000000 370.00000000 35 242 117 0.000000 0.000000 0.000000 0.000000 -60.708740 0.000000 124.000000 -0.383552 0.923367 0.016788
-5680.00000000 -3900.00000000 370.00000000 35 242 117 0.000000 0.000000 0.000000 0.000000 -60.708740 0.000000 124.000000 -0.377681 0.893104 -0.244382
-5690.00000000 -3870.00000000 360.00000000 35 242 117 0.000000 0.000000 0.000000 0.000000 -60.708740 0.000000 124.000000 -0.366823 0.897170 -0.246022
-5650.00000000 -3900.00000000 380.00000000 35 242 117 0.000000 0.000000 0.000000 0.000000 -60.708740 0.000000 124.000000 -0.333782 0.904299 0.266143
-5670.00000000 -3870.00000000 360.00000000 35 242 117 0.000000 0.000000 0.000000 0.000000 -60.708740 0.000000 124.000000 -0.273951 0.898855 -0.342068
-5660.00000000 -3890.00000000 350.00000000 35 242 117 0.000000 0.000000 0.000000 0.000000 -60.708740 0.000000 124.000000 -0.131527 0.969214 -0.208145
-5650.00000000 -3870.00000000 330.00000000 35 242 117 0.000000 0.000000 0.000000 0.000000 -60.708740 0.000000 124.000000 -0.453767 0.823737 -0.339930
-5690.00000000 -3910.00000000 600.00000000 35 242 117 0.000000 0.000000 0.000000 0.000000 -60.708740 0.000000 124.000000 0.010177 0.987156 0.159438
-5660.00000000 -3910.00000000 570.00000000 35 242 117 0.000000 0.000000 0.000000 0.000000 -60.708740 0.000000 124.000000 -0.257519 0.912229 -0.318625
-5710.00000000 -3940.00000000 640.00000000 35 242 117 0.000000 0.000000 0.000000 0.000000 -60.708740 0.000000 124.000000 0.015650 0.998461 0.053210
-5700.00000000 -3920.00000000 570.00000000 35 242 117 0.000000 0.000000 0.000000 0.000000 -60.708740 0.000000 124.000000 -0.226823 0.939296 0.257437
-5710.00000000 -3940.00000000 580.00000000 35 242 117 0.000000 0.000000 0.000000 0.000000 -60.708740 0.000000 124.000000 -0.191897 0.919685 -0.342572
-5700.00000000 -3940.00000000 580.00000000 35 242 117 0.000000 0.000000 0.000000 0.000000 -60.708740 0.000000 124.000000 -0.226366 0.955024 0.191541
-5700.00000000 -3910.00000000 610.00000000 35 242 117 0.000000 0.000000 0.000000 0.000000 -60.708740 0.000000 124.000000 -0.213572 0.905138 0.367576
-5680.00000000 -3910.00000000 560.00000000 35 242 117 0.000000 0.000000 0.000000 0.000000 -60.708740 0.000000 124.000000 -0.118038 0.982032 -0.147244
-5700.00000000 -3940.00000000 540.00000000 35 242 117 0.000000 0.000000 0.000000 0.000000 -60.708740 0.000000 124.000000 -0.028515 0.998025 0.055974
-5720.00000000 -3920.00000000 530.00000000 35 242 117 0.000000 0.000000 0.000000 0.000000 -60.708740 0.000000 124.000000 -0.019705 0.907745 -0.419060
-5730.00000000 -3930.00000000 560.00000000 35 242 117 0.000000 0.000000 0.000000 0.000000 -60.708740 0.000000 124.000000 -0.287911 0.869826 -0.400638
-5710.00000000 -3920.00000000 530.00000000 35 242 117 0.000000 0.000000 0.000000 0.000000 -60.708740 0.000000 124.000000 0.061536 0.978536 -0.196673
-5720.00000000 -3970.00000000 550.00000000 35 242 117 0.000000 0.000000 0.000000 0.000000 -60.708740 0.000000 124.000000 -0.050311 0.943004 -0.328955
-5660.00000000 -3910.00000000 420.00000000 35 242 117 0.000000 0.000000 0.000000 0.000000 -60.708740 0.000000 124.000000 -0.146427 0.988091 -0.047272
-5650.00000000 -3960.00000000 470.00000000 35 242 117 0.000000 0.000000 0.000000 0.000000 -60.708740 0.000000 124.000000 -0.307492 0.910816 0.275431
-5720.00000000 -3940.00000000 470.00000000 35 242 117 0.000000 0.000000 0.000000 0.000000 -60.708740 0.000000 124.000000 0.049796 0.903055 -0.426629
-5700.00000000 -3940.00000000 460.00000000 35 242 117 0.000000 0.000000 0.000000 0.000000 -60.708740 0.000000 124.000000 -0.112714 0.991652 -0.062619
-5710.00000000 -3950.00000000 460.00000000 35 242 117 0.000000 0.000000 0.000000 0.000000 -60.708740 0.000000 124.000000 -0.011722 0.996381 -0.084186
-5700.00000000 -3910.00000000 460.00000000 35 242 117 0.000000 0.000000 0.000000 0.000000 -60.708740 0.000000 124.000000 -0.362681 0.870740 -0.332075
-5720.00000000 -3940.00000000 470.00000000 35 242 117 0.000000 0.000000 0.000000 0.000000 -60.708740 0.000000 124.000000 0.049796 0.903055 -0.426629
-5730.00000000 -3960.00000000 450.00000000 35 242 117 0.000000 0.000000 0.000000 0.000000 -60.708740 0.000000 124.000000 -0.130234 0.982235 -0.135103
-5670.00000000 -3910.00000000 320.00000000 35 242 117 0.000000 0.000000 0.000000 0.000000 -60.708740 0.000000 124.000000 -0.210655 0.977107 0.029754
-5670.00000000 -3910.00000000 330.00000000 35 242 117 0.000000 0.000000 0.000000 0.000000 -60.708740 0.000000 124.000000 -0.328278 0.944274 0.024082
-5680.00000000 -3910.00000000 340.00000000 35 242 117 0.000000 0.000000 0.000000 0.000000 -60.708740 0.000000 124.000000 -0.160334 0.984572 -0.070072
-5710.00000000 -3940.00000000 370.00000000 35 242 117 0.000000 0.000000 0.000000 0.000000 -60.708740 0.000000 124.000000 -0.259295 0.934864 0.242476
-5720.00000000 -3930.00000000 400.00000000 35 242 117 0.000000 0.000000 0.000000 0.000000 -60.708740 0.000000 124.000000 -0.115157 0.970607 -0.211332
-5560.00000000 -3760.00000000 120.00000000 35 242 117 0.000000 0.000000 0.000000 0.000000 -60.708740 0.000000 124.000000 0.874967 -0.276544 0.397437
-5560.00000000 -3760.00000000 120.00000000 35 242 117 0.000000 0.000000 0.000000 0.000000 -60.708740 0.000000 124.000000 0.874967 -0.276544 0.397437
-5590.00000000 -3780.00000000 270.00000000 35 242 117 0.000000 0.000000 0.000000 0.000000 -60.708740 0.000000 124.000000 0.897714 -0.158926 0.410915
-5620.00000000 -3810.00000000 280.00000000 35 242 117 0.000000 0.000000 0.000000 0.000000 -60.708740 0.000000 124.000000 0.761574 -0.520218 0.386495
-5620.00000000 -3810.00000000 280.00000000 35 242 117 0.000000 0.000000 0.000000 0.000000 -60.708740 0.000000 124.000000 0.761574 -0.520218 0.386495
-5600.00000000 -3800.00000000 150.00000000 35 242 117 0.000000 0.000000 0.000000 0.000000 -60.708740 0.000000 124.000000 -0.655665 0.755050 0.001380
-5640.00000000 -3840.00000000 310.00000000 35 242 117 0.000000 0.000000 0.000000 0.000000 -60.708740 0.000000 124.000000 -0.497697 0.822215 -0.276152
-5630.00000000 -3860.00000000 240.00000000 35 242 117 0.000000 0.000000 0.000000 0.000000 -60.708740 0.000000 124.000000 -0.489946 0.802746 -0.339930
-5630.00000000 -3860.00000000 240.00000000 35 242 117 0.000000 0.000000 0.000000 0.000000 -60.708740 0.000000 124.000000 -0.489946 0.802746 -0.339930
-5630.00000000 -3860.00000000 240.00000000 35 242 117 0.000000 0.000000 0.000000 0.000000 -60.708740 0.000000 124.000000 -0.489946 0.802746 -0.339930
-5610.00000000 -3860.00000000 260.00000000 35 242 117 0.000000 0.000000 0.000000 0.000000 -60.708740 0.000000 124.000000 -0.429093 0.898456 0.093039
-5640.00000000 -3880.00000000 270.00000000 35 242 117 0.000000 0.000000 0.000000 0.000000 -60.708740 0.000000 124.000000 -0.180671 0.969988 -0.162732
-5620.00000000 -3850.00000000 220.00000000 35 242 117 0.000000 0.000000 0.000000 0.000000 -60.708740 0.000000 124.000000 -0.579884 0.781989 0.228534
-5620.00000000 -3860.00000000 230.00000000 35 242 117 0.000000 0.000000 0.000000 0.000000 -60.708740 0.000000 124.000000 -0.554338 0.779885 0.290670
-5610.00000000 -3850.00000000 220.00000000 35 242 117 0.000000 0.000000 0.000000 0.000000 -60.708740 0.000000 124.000000 -0.544893 0.822565 0.162722
-5610.00000000 -3850.00000000 220.00000000 35 242 117 0.000000 0.000000 0.000000 0.000000 -60.708740 0.000000 124.000000 -0.544893 0.822565 0.162722
-5610.00000000 -3860.00000000 150.00000000 35 242 117 0.000000 0.000000 0.000000 0.000000 -60.708740 0.000000 124.000000 -0.504805 0.855724 0.113617
-5640.00000000 -3900.00000000 200.00000000 35 242 117 0.000000 0.000000 0.000000 0.000000 -60.708740 0.000000 124.000000 -0.430666 0.778448 -0.456668
-5620.00000000 -3880.00000000 180.00000000 35 242 117 0.000000 0.000000 0.000000 0.000000 -60.708740 0.000000 124.000000 -0.600284 0.723920 0.339998
-5620.00000000 -3870.00000000 150.00000000 35 242 117 0.000000 0.000000 0.000000 0.000000 -60.708740 0.000000 124.000000 -0.475450 0.878281 0.050696
-5650.00000000 -3860.00000000 240.00000000 35 242 117 0.000000 0.000000 0.000000 0.000000 -60.708740 0.000000 124.000000 -0.361455 0.926142 -0.107754
-5650.00000000 -3890.00000000 310.00000000 35 242 117 0.000000 0.000000 0.000000 0.000000 -60.708740 0.000000 124.000000 -0.460770 0.762485 -0.454211
-5710.00000000 -3890.00000000 310.00000000 35 242 117 0.000000 0.000000 0.000000 0.000000 -60.708740 0.000000 124.000000 -0.246867 0.932453 0.263795
-5650.00000000 -3860.00000000 210.00000000 35 242 117 0.000000 0.000000 0.000000 0.000000 -60.708740 0.000000 124.000000 -0.409342 0.906103 0.106845
-5660.00000000 -3860.00000000 200.00000000 35 242 117 0.000000 0.000000 0.000000 0.000000 -60.708740 0.000000 124.000000 -0.152465 0.988200 0.014682
-5660.00000000 -3860.00000000 170.00000000 35 242 117 0.000000 0.000000 0.000000 0.000000 -60.708740 0.000000 124.000000 -0.418336 0.853652 0.310279
-5650.00000000 -3870.00000000 200.00000000 35 242 117 0.000000 0.000000 0.000000 0.000000 -60.708740 0.000000 124.000000 -0.391039 0.812404 -0.432537
-5650.00000000 -3890.00000000 170.00000000 35 242 117 0.000000 0.000000 0.000000 0.000000 -60.708740 0.000000 124.000000 -0.354867 0.932680 -0.064641
-5650.00000000 -3890.00000000 170.00000000 35 242 117 0.000000 0.000000 0.000000 0.000000 -60.708740 0.000000 124.000000 -0.354867 0.932680 -0.064641
-5650.00000000 -3890.00000000 180.00000000 35 242 117 0.000000 0.000000 0.000000 0.000000 -60.708740 0.000000 124.000000 -0.267006 0.957314 -0.110710
-5570.00000000 -3780.00000000 120.00000000 35 242 117 0.000000 0.000000 0.000000 0.000000 -60.708740 0.000000 124.000000 0.916110 -0.129284 0.379511
-5580.00000000 -3770.00000000 90.00000000 35 242 117 0.000000 0.000000 0.000000 0.000000 -60.708740 0.000000 124.000000 0.818257 -0.488442 0.303116
-5600.00000000 -3810.00000000 130.00000000 35 242 117 0.000000 0.000000 0.000000 0.000000 -60.708740 0.000000 124.000000 0.739390 -0.584070 0.334910
-5600.00000000 -3810.00000000 130.00000000 35 242 117 0.000000 0.000000 0.000000 0.000000 -60.708740 0.000000 124.000000 0.739390 -0.584070 0.334910
-5600.00000000 -3810.00000000 140.00000000 35 242 117 0.000000 0.000000 0.000000 0.000000 -60.708740 0.000000 124.000000 -0.665553 0.706461 -0.240732
-5600.00000000 -3760.00000000 60.00000000 35 242 117 0.000000 0.000000 0.000000 0.000000 -60.708740 0.000000 124.000000 0.891089 -0.096523 0.443446
-5580.00000000 -3780.00000000 0.00000000 35 242 117 0.000000 0.000000 0.000000 0.000000 -60.708740 0.000000 124.000000 0.947474 0.068695 0.312368
-5590.00000000 -3880.00000000 130.00000000 35 242 117 0.000000 0.000000 0.000000 0.000000 -60.708740 0.000000 124.000000 -0.500712 0.750247 -0.431761
-5600.00000000 -3870.00000000 120.00000000 35 242 117 0.000000 0.000000 0.000000 0.000000 -60.708740 0.000000 124.000000 -0.511402 0.843442 -0.164538
-5630.00000000 -3850.00000000 120.00000000 35 242 117 0.000000 0.000000 0.000000 0.000000 -60.708740 0.000000 124.000000 -0.403487 0.890605 0.209813
-5630.00000000 -3850.00000000 120.00000000 35 242 117 0.000000 0.000000 0.000000 0.000000 -60.708740 0.000000 124.000000 -0.403487 0.890605 0.209813
-5620.00000000 -3840.00000000 140.00000000 35 242 117 0.000000 0.000000 0.000000 0.000000 -60.708740 0.000000 124.000000 0.730306 -0.515023 0.448782
-5610.00000000 -3840.00000000 90.00000000 35 242 117 0.000000 0.000000 0.000000 0.000000 -60.708740 0.000000 124.000000 -0.580095 0.810406 -0.082048
-5610.00000000 -3850.00000000 90.00000000 35 242 117 0.000000 0.000000 0.000000 0.000000 -60.708740 0.000000 124.000000 -0.427542 0.896004 0.119938
-5630.00000000 -3870.00000000 140.00000000 35 242 117 0.000000 0.000000 0.000000 0.000000 -60.708740 0.000000 124.000000 -0.603838 0.717770 -0.346678
-5630.00000000 -3870.00000000 90.00000000 35 242 117 0.000000 0.000000 0.000000 0.000000 -60.708740 0.000000 124.000000 -0.621069 0.705835 -0.340691
-5610.00000000 -3870.00000000 90.00000000 35 242 117 0.000000 0.000000 0.000000 0.000000 -60.708740 0.000000 124.000000 -0.520781 0.848945 0.089888
-5610.00000000 -3880.00000000 30.00000000 35 242 117 0.000000 0.000000 0.000000 0.000000 -60.708740 0.000000 124.000000 -0.414382 0.893737 0.171817
-5610.00000000 -3880.00000000 40.00000000 35 242 117 0.000000 0.000000 0.000000 0.000000 -60.708740 0.000000 124.000000 -0.586667 0.741819 -0.324849
-5620.00000000 -3870.00000000 20.00000000 35 242 117 0.000000 0.000000 0.000000 0.000000 -60.708740 0.000000 124.000000 -0.589335 0.787302 -0.181217
-5620.00000000 -3890.00000000 10.00000000 35 242 117 0.000000 0.000000 0.000000 0.000000 -60.708740 0.000000 124.000000 -0.514051 0.717009 -0.470797
-5660.00000000 -3890.00000000 70.00000000 35 242 117 0.000000 0.000000 0.000000 0.000000 -60.708740 0.000000 124.000000 -0.471290 0.864278 0.175810
-5660.00000000 -3890.00000000 70.00000000 35 242 117 0.000000 0.000000 0.000000 0.000000 -60.708740 0.000000 124.000000 -0.471290 0.864278 0.175810
-5670.00000000 -3900.00000000 80.00000000 35 242 117 0.000000 0.000000 0.000000 0.000000 -60.708740 0.000000 124.000000 -0.164028 0.972723 -0.164028
-5700.00000000 -3900.00000000 120.00000000 35 242 117 0.000000 0.000000 0.000000 0.000000 -60.708740 0.000000 124.000000 -0.062964 0.995268 0.074010
-5670.00000000 -3900.00000000 20.00000000 35 242 117 0.000000 0.000000 0.000000 0.000000 -60.708740 0.000000 124.000000 -0.204058 0.946335 0.250621
-5640.00000000 -3910.00000000 190.00000000 35 242 117 0.000000 0.000000 0.000000 0.000000 -60.708740 0.000000 124.000000 -0.350846 0.931557 -0.095441
-5690.00000000 -3940.00000000 280.00000000 35 242 117 0.000000 0.000000 0.000000 0.000000 -60.708740 0.000000 124.000000 -0.022441 0.997025 0.073735
-5690.00000000 -3930.00000000 310.00000000 35 242 117 0.000000 0.000000 0.000000 0.000000 -60.708740 0.000000 124.000000 -0.017164 0.985209 -0.170495
-5660.00000000 -3910.00000000 280.00000000 35 242 117 0.000000 0.000000 0.000000 0.000000 -60.708740 0.000000 124.000000 -0.305379 0.932871 -0.191036
-5680.00000000 -3930.00000000 300.00000000 35 242 117 0.000000 0.000000 0.000000 0.000000 -60.708740 0.000000 124.000000 -0.216690 0.975705 0.032324
-5700.00000000 -3920.00000000 250.00000000 35 242 117 0.000000 0.000000 0.000000 0.000000 -60.708740 0.000000 124.000000 -0.306341 0.938255 0.160726
-5680.00000000 -3920.00000000 230.00000000 35 242 117 0.000000 0.000000 0.000000 0.000000 -60.708740 0.000000 124.000000 0.032287 0.998814 -0.036453
-5680.00000000 -3920.00000000 200.00000000 35 242 117 0.000000 0.000000 0.000000 0.000000 -60.708740 0.000000 124.000000 -0.083374 0.971872 0.220258
-5680.00000000 -3930.00000000 200.00000000 35 242 117 0.000000 0.000000 0.000000 0.000000 -60.708740 0.000000 124.000000 -0.407215 0.838014 -0.363192
-5690.00000000 -3920.00000000 200.00000000 35 242 117 0.000000 0.000000 0.000000 0.000000 -60.708740 0.000000 124.000000 0.001052 0.996710 -0.081042
-5680.00000000 -3930.00000000 210.00000000 35 242 117 0.000000 0.000000 0.000000 0.000000 -60.708740 0.000000 124.000000 -0.262136 0.954069 -0.145040
-5680.00000000 -3920.00000000 180.00000000 35 242 117 0.000000 0.000000 0.000000 0.000000 -60.708740 0.000000 124.000000 -0.342020 0.934855 -0.095229
-5680.00000000 -3920.00000000 160.00000000 35 242 117 0.000000 0.000000 0.000000 0.000000 -60.708740 0.000000 124.000000 -0.125550 0.952861 0.276211
-5710.00000000 -3950.00000000 200.00000000 35 242 117 0.000000 0.000000 0.000000 0.000000 -60.708740 0.000000 124.000000 -0.186199 0.939273 -0.288264
-5710.00000000 -3950.00000000 230.00000000 35 242 117 0.000000 0.000000 0.000000 0.000000 -60.708740 0.000000 124.000000 -0.210991 0.959413 -0.187106
-5710.00000000 -3950.00000000 220.00000000 35 242 117 0.000000 0.000000 0.000000 0.000000 -60.708740 0.000000 124.000000 -0.059688 0.975719 -0.210736
-5720.00000000 -3940.00000000 230.00000000 35 242 117 0.000000 0.000000 0.000000 0.000000 -60.708740 0.000000 124.000000 -0.146668 0.936208 -0.319380
-5700.00000000 -3950.00000000 210.00000000 35 242 117 0.000000 0.000000 0.000000 0.000000 -60.708740 0.000000 124.000000 -0.091681 0.989922 -0.107928
-5730.00000000 -3950.00000000 180.00000000 35 242 117 0.000000 0.000000 0.000000 0.000000 -60.708740 0.000000 124.000000 -0.170869 0.973319 0.153149
-5730.00000000 -3930.00000000 190.00000000 35 242 117 0.000000 0.000000 0.000000 0.000000 -60.708740 0.000000 124.000000 -0.296167 0.928180 0.225314
-5720.00000000 -3930.00000000 190.00000000 35 242 117 0.000000 0.000000 0.000000 0.000000 -60.708740 0.000000 124.000000 0.053477 0.937800 0.343034
-5720.00000000 -3920.00000000 150.00000000 35 242 117 0.000000 0.000000 0.000000 0.000000 -60.708740 0.000000 124.000000 -0.290078 0.911049 -0.292993
-5720.00000000 -3920.00000000 170.00000000 35 242 117 0.000000 0.000000 0.000000 0.000000 -60.708740 0.000000 124.000000 -0.125271 0.923704 0.362048
-5730.00000000 -3950.00000000 170.00000000 35 242 117 0.000000 0.000000 0.000000 0.000000 -60.708740 0.000000 124.000000 -0.160692 0.980101 -0.116533
-5730.00000000 -3950.00000000 170.00000000 35 242 117 0.000000 0.000000 0.000000 0.000000 -60.708740 0.000000 124.000000 -0.160692 0.980101 -0.116533
-5720.00000000 -3930.00000000 180.00000000 35 242 117 0.000000 0.000000 0.000000 0.000000 -60.708740 0.000000 124.000000 -0.133845 0.970055 0.202679
-5730.00000000 -3950.00000000 180.00000000 35 242 117 0.000000 0.000000 0.000000 0.000000 -60.708740 0.000000 124.000000 -0.170869 0.973319 0.153149
-5710.00000000 -3960.00000000 180.00000000 35 242 117 0.000000 0.000000 0.000000 0.000000 -60.708740 0.000000 124.000000 -0.245464 0.935570 0.253880
-5640.00000000 -3920.00000000 -10.00000000 35 242 117 0.000000 0.000000 0.000000 0.000000 -60.708740 0.000000 124.000000 -0.550508 0.763608 -0.337408
-5680.00000000 -3940.00000000 130.00000000 35 242 117 0.000000 0.000000 0.000000 0.000000 -60.708740 0.000000 124.000000 -0.197613 0.972960 0.119575
-5690.00000000 -3910.00000000 120.00000000 35 242 117 0.000000 0.000000 0.000000 0.000000 -60.708740 0.000000 124.000000 -0.160683 0.984332 -0.072605
-5680.00000000 -3940.00000000 140.00000000 35 242 117 0.000000 0.000000 0.000000 0.000000 -60.708740 0.000000 124.000000 0.037012 0.945711 -0.322895
-5660.00000000 -3920.00000000 110.00000000 35 242 117 0.000000 0.000000 0.000000 0.000000 -60.708740 0.000000 124.000000 -0.353197 0.928677 -0.113187
-5680.00000000 -3940.00000000 130.00000000 35 242 117 0.000000 0.000000 0.000000 0.000000 -60.708740 0.000000 124.000000 -0.197613 0.972960 0.119575
-5680.00000000 -3940.00000000 90.00000000 35 242 117 0.000000 0.000000 0.000000 0.000000 -60.708740 0.000000 124.000000 -0.054311 0.997828 -0.037272
-5710.00000000 -3930.00000000 140.00000000 35 242 117 0.000000 0.000000 0.000000 0.000000 -60.708740 0.000000 124.000000 -0.254297 0.901062 -0.351311
-5710.00000000 -3930.00000000 130.00000000 35 242 117 0.000000 0.000000 0.000000 0.000000 -60.708740 0.000000 124.000000 -0.248970 0.938853 0.237843
-5710.00000000 -3960.00000000 110.00000000 35 242 117 0.000000 0.000000 0.000000 0.000000 -60.708740 0.000000 124.000000 -0.201052 0.975658 0.087575
-5710.00000000 -3960.00000000 100.00000000 35 242 117 0.000000 0.000000 0.000000 0.000000 -60.708740 0.000000 124.000000 -0.154670 0.987857 -0.014677
-5730.00000000 -3980.00000000 70.00000000 35 242 117 0.000000 0.000000 0.000000 0.000000 -60.708740 0.000000 124.000000 -0.176619 0.975787 -0.129019
-5720.00000000 -3960.00000000 80.00000000 35 242 117 0.000000 0.000000 0.000000 0.000000 -60.708740 0.000000 124.000000 -0.288687 0.920640 -0.262835
-5680.00000000 -3940.00000000 40.00000000 35 242 117 0.000000 0.000000 0.000000 0.000000 -60.708740 0.000000 124.000000 -0.185871 0.982460 -0.015008
-5650.00000000 -3930.00000000 60.00000000 35 242 117 0.000000 0.000000 0.000000 0.000000 -60.708740 0.000000 124.000000 -0.522693 0.752088 -0.401441
-5680.00000000 -3940.00000000 30.00000000 35 242 117 0.000000 0.000000 0.000000 0.000000 -60.708740 0.000000 124.000000 0.042654 0.987960 0.148713
-5660.00000000 -3920.00000000 60.00000000 35 242 117 0.000000 0.000000 0.000000 0.000000 -60.708740 0.000000 124.000000 -0.241367 0.966733 0.084668
-5660.00000000 -3910.00000000 40.00000000 35 242 117 0.000000 0.000000 0.000000 0.000000 -60.708740 0.000000 124.000000 -0.184002 0.975083 -0.123919
-5680.00000000 -3920.00000000 50.00000000 35 242 117 0.000000 0.000000 0.000000 0.000000 -60.708740 0.000000 124.000000 -0.314917 0.933654 -0.170638
-5690.00000000 -3920.00000000 50.00000000 35 242 117 0.000000 0.000000 0.000000 0.000000 -60.708740 0.000000 124.000000 -0.279262 0.957650 0.070134
-5670.00000000 -3920.00000000 60.00000000 35 242 117 0.000000 0.000000 0.000000 0.000000 -60.708740 0.000000 124.000000 -0.051352 0.980463 0.189883
-5650.00000000 -3910.00000000 30.00000000 35 242 117 0.000000 0.000000 0.000000 0.000000 -60.708740 0.000000 124.000000 -0.473935 0.834436 0.281253
-5670.00000000 -3910.00000000 30.00000000 35 242 117 0.000000 0.000000 0.000000 0.000000 -60.708740 0.000000 124.000000 -0.449769 0.832150 0.324398
-5650.00000000 -3910.00000000 0.00000000 35 242 117 0.000000 0.000000 0.000000 0.000000 -60.708740 0.000000 124.000000 -0.264131 0.959890 0.094056
-5660.00000000 -3910.00000000 10.00000000 35 242 117 0.000000 0.000000 0.000000 0.000000 -60.708740 0.000000 124.000000 -0.340129 0.895622 -0.286659
-5660.00000000 -3910.00000000 20.00000000 35 242 117 0.000000 0.000000 0.000000 0.000000 -60.708740 0.000000 124.000000 -0.136781 0.987860 -0.073651
-5690.00000000 -3930.00000000 0.00000000 35 242 117 0.000000 0.000000 0.000000 0.000000 -60.708740 0.000000 124.000000 -0.141798 0.982890 0.117559
-5680.00000000 -3940.00000000 -10.00000000 35 242 117 0.000000 0.000000 0.000000 0.000000 -60.708740 0.000000 124.000000 -0.406708 0.860994 -0.305415
-5680.00000000 -3940.00000000 -10.00000000 35 242 117 0.000000 0.000000 0.000000 0.000000 -60.708740 0.000000 124.000000 -0.406708 0.860994 -0.305415
-5650.00000000 -3910.00000000 10.00000000 35 242 117 0.000000 0.000000 0.000000 0.000000 -60.708740 0.000000 124.000000 -0.487442 0.767844 -0.415712
-5690.00000000 -3910.00000000 -10.00000000 35 242 117 0.000000 0.000000 0.000000 0.000000 -60.708740 0.000000 124.000000 -0.234994 0.856593 -0.459376
-5680.00000000 -3940.00000000 -10.00000000 35 242 117 0.000000 0.000000 0.000000 0.000000 -60.708740 0.000000 124.000000 -0.406708 0.860994 -0.305415
-5690.00000000 -3940.00000000 20.00000000 35 242 117 0.000000 0.000000 0.000000 0.000000 -60.708740 0.000000 124.000000 -0.328906 0.938389 -0.106055
-5700.00000000 -3930.00000000 10.00000000 35 242 117 0.000000 0.000000 0.000000 0.000000 -60.708740 0.000000 124.000000 -0.026615 0.944214 0.328257
-5720.00000000 -3980.00000000 60.00000000 35 242 117 0.000000 0.000000 0.000000 0.000000 -60.708740 0.000000 124.000000 -0.219589 0.961194 0.166993
-5800.00000000 -3980.00000000 770.00000000 35 242 117 0.000000 0.000000 0.000000 0.000000 -60.708740 0.000000 124.000000 0.117058 0.953562 0.277519
-5740.00000000 -3950.00000000 720.00000000 35 242 117 0.000000 0.000000 0.000000 0.000000 -60.708740 0.000000 124.000000 -0.045826 0.964828 0.258856
-5770.00000000 -3950.00000000 700.00000000 35 242 117 0.000000 0.000000 0.000000 0.000000 -60.708740 0.000000 124.000000 0.181051 0.965169 0.188866
