//X Y Z R G B PointSourceId ScanDirectionFlag NumberOfReturns ReturnNumber GpsTime Intensity Classification Nx Ny Nz
110.00000000 19570.00000000 260.00000000 136 108 133 0.000000 0.000000 0.000000 0.000000 -60.708740 0.000000 32.000000 0.952560 -0.292396 0.084470
100.00000000 19550.00000000 270.00000000 136 108 133 0.000000 0.000000 0.000000 0.000000 -60.708740 0.000000 32.000000 0.995632 -0.064909 0.067109
100.00000000 19550.00000000 240.00000000 136 108 133 0.000000 0.000000 0.000000 0.000000 -60.708740 0.000000 32.000000 0.956353 0.252647 0.146826
110.00000000 19520.00000000 250.00000000 136 108 133 0.000000 0.000000 0.000000 0.000000 -60.708740 0.000000 32.000000 0.914804 0.373533 -0.153642
110.00000000 19520.00000000 250.00000000 136 108 133 0.000000 0.000000 0.000000 0.000000 -60.708740 0.000000 32.000000 0.914804 0.373533 -0.153642
100.00000000 19540.00000000 260.00000000 136 108 133 0.000000 0.000000 0.000000 0.000000 -60.708740 0.000000 32.000000 0.946449 -0.172452 0.272936
110.00000000 19520.00000000 250.00000000 136 108 133 0.000000 0.000000 0.000000 0.000000 -60.708740 0.000000 32.000000 0.914804 0.373533 -0.153642
90.00000000 19530.00000000 260.00000000 136 108 133 0.000000 0.000000 0.000000 0.000000 -60.708740 0.000000 32.000000 0.994497 0.016339 0.103480
120.00000000 19560.00000000 220.00000000 136 108 133 0.000000 0.000000 0.000000 0.000000 -60.708740 0.000000 32.000000 0.923722 -0.354209 0.145851
120.00000000 19560.00000000 220.00000000 136 108 133 0.000000 0.000000 0.000000 0.000000 -60.708740 0.000000 32.000000 0.923722 -0.354209 0.145851
120.00000000 19560.00000000 150.00000000 136 108 133 0.000000 0.000000 0.000000 0.000000 -60.708740 0.000000 32.000000 0.982896 -0.058237 0.174711
120.00000000 19580.00000000 180.00000000 136 108 133 0.000000 0.000000 0.000000 0.000000 -60.708740 0.000000 32.000000 0.839969 -0.237150 0.488069
120.00000000 19560.00000000 150.00000000 136 108 133 0.000000 0.000000 0.000000 0.000000 -60.708740 0.000000 32.000000 0.982896 -0.058237 0.174711
120.00000000 19550.00000000 160.00000000 136 108 133 0.000000 0.000000 0.000000 0.000000 -60.708740 0.000000 32.000000 0.974979 0.054774 -0.215445
140.00000000 19560.00000000 190.00000000 136 108 133 0.000000 0.000000 0.000000 0.000000 -60.708740 0.000000 32.000000 0.929976 -0.351626 0.107253
120.00000000 19560.00000000 160.00000000 136 108 133 0.000000 0.000000 0.000000 0.000000 -60.708740 0.000000 32.000000 0.950896 0.252223 0.179389
120.00000000 19560.00000000 190.00000000 136 108 133 0.000000 0.000000 0.000000 0.000000 -60.708740 0.000000 32.000000 0.851643 -0.502777 0.148048
130.00000000 19510.00000000 230.00000000 136 108 133 0.000000 0.000000 0.000000 0.000000 -60.708740 0.000000 32.000000 0.758257 0.634645 -0.149239
130.00000000 19530.00000000 220.00000000 136 108 133 0.000000 0.000000 0.000000 0.000000 -60.708740 0.000000 32.000000 0.876651 0.456438 0.152146
130.00000000 19520.00000000 210.00000000 136 108 133 0.000000 0.000000 0.000000 0.000000 -60.708740 0.000000 32.000000 0.984642 0.173490 -0.019532
130.00000000 19510.00000000 150.00000000 136 108 133 0.000000 0.000000 0.000000 0.000000 -60.708740 0.000000 32.000000 0.850097 0.481671 -0.212902
150.00000000 19510.00000000 150.00000000 136 108 133 0.000000 0.000000 0.000000 0.000000 -60.708740 0.000000 32.000000 0.643215 0.719447 -0.262050
120.00000000 19540.00000000 160.00000000 136 108 133 0.000000 0.000000 0.000000 0.000000 -60.708740 0.000000 32.000000 0.961723 0.112611 -0.249815
130.00000000 19510.00000000 160.00000000 136 108 133 0.000000 0.000000 0.000000 0.000000 -60.708740 0.000000 32.000000 0.930792 0.365441 0.008913
130.00000000 19530.00000000 160.00000000 136 108 133 0.000000 0.000000 0.000000 0.000000 -60.708740 0.000000 32.000000 0.918555 0.252350 -0.304262
100.00000000 19570.00000000 220.00000000 136 108 133 0.000000 0.000000 0.000000 0.000000 -60.708740 0.000000 32.000000 0.993094 0.102346 -0.057359
90.00000000 19580.00000000 210.00000000 136 108 133 0.000000 0.000000 0.000000 0.000000 -60.708740 0.000000 32.000000 0.990787 -0.079586 -0.109575
110.00000000 19550.00000000 230.00000000 136 108 133 0.000000 0.000000 0.000000 0.000000 -60.708740 0.000000 32.000000 0.949433 0.253272 0.185553
110.00000000 19550.00000000 220.00000000 136 108 133 0.000000 0.000000 0.000000 0.000000 -60.708740 0.000000 32.000000 0.964467 0.226553 0.135932
100.00000000 19550.00000000 200.00000000 136 108 133 0.000000 0.000000 0.000000 0.000000 -60.708740 0.000000 32.000000 0.994985 0.036201 0.093246
110.00000000 19570.00000000 180.00000000 136 108 133 0.000000 0.000000 0.000000 0.000000 -60.708740 0.000000 32.000000 0.967419 -0.219111 -0.126854
110.00000000 19540.00000000 230.00000000 136 108 133 0.000000 0.000000 0.000000 0.000000 -60.708740 0.000000 32.000000 0.943254 0.331955 -0.008769
110.00000000 19540.00000000 230.00000000 136 108 133 0.000000 0.000000 0.000000 0.000000 -60.708740 0.000000 32.000000 0.943254 0.331955 -0.008769
90.00000000 19520.00000000 170.00000000 136 108 133 0.000000 0.000000 0.000000 0.000000 -60.708740 0.000000 32.000000 0.951319 0.223282 0.212457
90.00000000 19530.00000000 180.00000000 136 108 133 0.000000 0.000000 0.000000 0.000000 -60.708740 0.000000 32.000000 0.988448 -0.071019 -0.133889
150.00000000 19620.00000000 140.00000000 136 108 133 0.000000 0.000000 0.000000 0.000000 -60.708740 0.000000 32.000000 -0.365037 0.918887 0.149651
160.00000000 19630.00000000 140.00000000 136 108 133 0.000000 0.000000 0.000000 0.000000 -60.708740 0.000000 32.000000 -0.291810 0.847639 -0.443119
160.00000000 19620.00000000 110.00000000 136 108 133 0.000000 0.000000 0.000000 0.000000 -60.708740 0.000000 32.000000 -0.104797 0.987913 0.114216
140.00000000 19620.00000000 110.00000000 136 108 133 0.000000 0.000000 0.000000 0.000000 -60.708740 0.000000 32.000000 -0.450605 0.891737 0.041948
130.00000000 19620.00000000 120.00000000 136 108 133 0.000000 0.000000 0.000000 0.000000 -60.708740 0.000000 32.000000 -0.645096 0.760549 -0.073601
130.00000000 19610.00000000 140.00000000 136 108 133 0.000000 0.000000 0.000000 0.000000 -60.708740 0.000000 32.000000 0.882116 -0.462726 -0.088072
130.00000000 19610.00000000 110.00000000 136 108 133 0.000000 0.000000 0.000000 0.000000 -60.708740 0.000000 32.000000 0.893924 -0.440744 -0.081517
130.00000000 19610.00000000 110.00000000 136 108 133 0.000000 0.000000 0.000000 0.000000 -60.708740 0.000000 32.000000 0.893924 -0.440744 -0.081517
120.00000000 19590.00000000 130.00000000 136 108 133 0.000000 0.000000 0.000000 0.000000 -60.708740 0.000000 32.000000 0.971579 -0.232838 0.042667
130.00000000 19610.00000000 110.00000000 136 108 133 0.000000 0.000000 0.000000 0.000000 -60.708740 0.000000 32.000000 0.893924 -0.440744 -0.081517
130.00000000 19610.00000000 140.00000000 136 108 133 0.000000 0.000000 0.000000 0.000000 -60.708740 0.000000 32.000000 0.882116 -0.462726 -0.088072
120.00000000 19600.00000000 130.00000000 136 108 133 0.000000 0.000000 0.000000 0.000000 -60.708740 0.000000 32.000000 0.946733 -0.206287 0.247271
150.00000000 19620.00000000 100.00000000 136 108 133 0.000000 0.000000 0.000000 0.000000 -60.708740 0.000000 32.000000 -0.287010 0.949135 -0.129488
160.00000000 19600.00000000 90.00000000 136 108 133 0.000000 0.000000 0.000000 0.000000 -60.708740 0.000000 32.000000 0.645976 -0.659193 0.384942
160.00000000 19630.00000000 100.00000000 136 108 133 0.000000 0.000000 0.000000 0.000000 -60.708740 0.000000 32.000000 -0.108705 0.985510 -0.130207
130.00000000 19610.00000000 100.00000000 136 108 133 0.000000 0.000000 0.000000 0.000000 -60.708740 0.000000 32.000000 0.830587 -0.517788 0.204989
160.00000000 19600.00000000 70.00000000 136 108 133 0.000000 0.000000 0.000000 0.000000 -60.708740 0.000000 32.000000 -0.413957 0.910183 0.014364
140.00000000 19620.00000000 100.00000000 136 108 133 0.000000 0.000000 0.000000 0.000000 -60.708740 0.000000 32.000000 -0.476010 0.874333 -0.094637
160.00000000 19590.00000000 70.00000000 136 108 133 0.000000 0.000000 0.000000 0.000000 -60.708740 0.000000 32.000000 0.876583 -0.480707 -0.022891
160.00000000 19600.00000000 80.00000000 136 108 133 0.000000 0.000000 0.000000 0.000000 -60.708740 0.000000 32.000000 -0.652173 0.753849 -0.079888
130.00000000 19610.00000000 90.00000000 136 108 133 0.000000 0.000000 0.000000 0.000000 -60.708740 0.000000 32.000000 -0.669278 0.656187 -0.348548
160.00000000 19620.00000000 50.00000000 136 108 133 0.000000 0.000000 0.000000 0.000000 -60.708740 0.000000 32.000000 0.728873 -0.683408 -0.041203
160.00000000 19600.00000000 60.00000000 136 108 133 0.000000 0.000000 0.000000 0.000000 -60.708740 0.000000 32.000000 -0.271976 0.960139 0.064515
160.00000000 19610.00000000 40.00000000 136 108 133 0.000000 0.000000 0.000000 0.000000 -60.708740 0.000000 32.000000 -0.695329 0.698386 0.169630
160.00000000 19600.00000000 60.00000000 136 108 133 0.000000 0.000000 0.000000 0.000000 -60.708740 0.000000 32.000000 -0.271976 0.960139 0.064515
150.00000000 19590.00000000 60.00000000 136 108 133 0.000000 0.000000 0.000000 0.000000 -60.708740 0.000000 32.000000 0.814990 -0.579396 0.009588
130.00000000 19550.00000000 110.00000000 136 108 133 0.000000 0.000000 0.000000 0.000000 -60.708740 0.000000 32.000000 0.953554 -0.273767 -0.125642
120.00000000 19570.00000000 110.00000000 136 108 133 0.000000 0.000000 0.000000 0.000000 -60.708740 0.000000 32.000000 0.899604 -0.027988 0.435808
120.00000000 19550.00000000 140.00000000 136 108 133 0.000000 0.000000 0.000000 0.000000 -60.708740 0.000000 32.000000 0.938193 -0.291545 0.186533
130.00000000 19580.00000000 110.00000000 136 108 133 0.000000 0.000000 0.000000 0.000000 -60.708740 0.000000 32.000000 0.985589 -0.125439 0.113492
120.00000000 19580.00000000 140.00000000 136 108 133 0.000000 0.000000 0.000000 0.000000 -60.708740 0.000000 32.000000 0.941893 -0.298516 0.154029
130.00000000 19550.00000000 110.00000000 136 108 133 0.000000 0.000000 0.000000 0.000000 -60.708740 0.000000 32.000000 0.953554 -0.273767 -0.125642
140.00000000 19560.00000000 130.00000000 136 108 133 0.000000 0.000000 0.000000 0.000000 -60.708740 0.000000 32.000000 0.954159 -0.299175 -0.008618
140.00000000 19570.00000000 130.00000000 136 108 133 0.000000 0.000000 0.000000 0.000000 -60.708740 0.000000 32.000000 0.950467 -0.262895 0.165826
120.00000000 19550.00000000 140.00000000 136 108 133 0.000000 0.000000 0.000000 0.000000 -60.708740 0.000000 32.000000 0.938193 -0.291545 0.186533
150.00000000 19570.00000000 80.00000000 136 108 133 0.000000 0.000000 0.000000 0.000000 -60.708740 0.000000 32.000000 0.891965 -0.451947 0.011928
130.00000000 19560.00000000 100.00000000 136 108 133 0.000000 0.000000 0.000000 0.000000 -60.708740 0.000000 32.000000 0.992495 0.082992 -0.089813
150.00000000 19560.00000000 70.00000000 136 108 133 0.000000 0.000000 0.000000 0.000000 -60.708740 0.000000 32.000000 0.928001 -0.333522 0.166063
130.00000000 19560.00000000 90.00000000 136 108 133 0.000000 0.000000 0.000000 0.000000 -60.708740 0.000000 32.000000 0.983380 -0.172003 0.058125
140.00000000 19560.00000000 80.00000000 136 108 133 0.000000 0.000000 0.000000 0.000000 -60.708740 0.000000 32.000000 0.778202 -0.614527 0.129452
150.00000000 19570.00000000 80.00000000 136 108 133 0.000000 0.000000 0.000000 0.000000 -60.708740 0.000000 32.000000 0.891965 -0.451947 0.011928
130.00000000 19570.00000000 100.00000000 136 108 133 0.000000 0.000000 0.000000 0.000000 -60.708740 0.000000 32.000000 0.989020 -0.147062 0.014594
140.00000000 19580.00000000 100.00000000 136 108 133 0.000000 0.000000 0.000000 0.000000 -60.708740 0.000000 32.000000 0.932470 -0.162108 0.322831
130.00000000 19570.00000000 100.00000000 136 108 133 0.000000 0.000000 0.000000 0.000000 -60.708740 0.000000 32.000000 0.989020 -0.147062 0.014594
140.00000000 19540.00000000 110.00000000 136 108 133 0.000000 0.000000 0.000000 0.000000 -60.708740 0.000000 32.000000 0.989784 -0.119517 0.077744
120.00000000 19530.00000000 130.00000000 136 108 133 0.000000 0.000000 0.000000 0.000000 -60.708740 0.000000 32.000000 0.857493 0.309436 0.411042
140.00000000 19540.00000000 120.00000000 136 108 133 0.000000 0.000000 0.000000 0.000000 -60.708740 0.000000 32.000000 0.936992 -0.175255 0.302211
140.00000000 19520.00000000 140.00000000 136 108 133 0.000000 0.000000 0.000000 0.000000 -60.708740 0.000000 32.000000 0.693740 0.714274 0.092401
120.00000000 19520.00000000 140.00000000 136 108 133 0.000000 0.000000 0.000000 0.000000 -60.708740 0.000000 32.000000 0.802816 0.429563 0.413475
130.00000000 19520.00000000 110.00000000 136 108 133 0.000000 0.000000 0.000000 0.000000 -60.708740 0.000000 32.000000 0.947603 0.214681 0.236559
140.00000000 19510.00000000 120.00000000 136 108 133 0.000000 0.000000 0.000000 0.000000 -60.708740 0.000000 32.000000 0.813378 0.570098 -0.115778
120.00000000 19520.00000000 140.00000000 136 108 133 0.000000 0.000000 0.000000 0.000000 -60.708740 0.000000 32.000000 0.802816 0.429563 0.413475
120.00000000 19540.00000000 130.00000000 136 108 133 0.000000 0.000000 0.000000 0.000000 -60.708740 0.000000 32.000000 0.965030 -0.136011 0.224094
120.00000000 19540.00000000 140.00000000 136 108 133 0.000000 0.000000 0.000000 0.000000 -60.708740 0.000000 32.000000 0.955783 -0.049372 0.289900
140.00000000 19540.00000000 90.00000000 136 108 133 0.000000 0.000000 0.000000 0.000000 -60.708740 0.000000 32.000000 0.921406 0.354818 -0.158476
130.00000000 19520.00000000 80.00000000 136 108 133 0.000000 0.000000 0.000000 0.000000 -60.708740 0.000000 32.000000 0.867811 0.398064 -0.297404
140.00000000 19520.00000000 80.00000000 136 108 133 0.000000 0.000000 0.000000 0.000000 -60.708740 0.000000 32.000000 0.948832 0.219171 -0.227338
130.00000000 19540.00000000 100.00000000 136 108 133 0.000000 0.000000 0.000000 0.000000 -60.708740 0.000000 32.000000 0.874184 0.478486 0.082788
140.00000000 19530.00000000 90.00000000 136 108 133 0.000000 0.000000 0.000000 0.000000 -60.708740 0.000000 32.000000 0.945909 0.258722 -0.195753
150.00000000 19530.00000000 90.00000000 136 108 133 0.000000 0.000000 0.000000 0.000000 -60.708740 0.000000 32.000000 0.931031 0.226772 -0.285929
150.00000000 19510.00000000 70.00000000 136 108 133 0.000000 0.000000 0.000000 0.000000 -60.708740 0.000000 32.000000 0.915701 0.264729 0.302341
140.00000000 19550.00000000 40.00000000 136 108 133 0.000000 0.000000 0.000000 0.000000 -60.708740 0.000000 32.000000 0.996372 -0.055657 0.064388
130.00000000 19570.00000000 30.00000000 136 108 133 0.000000 0.000000 0.000000 0.000000 -60.708740 0.000000 32.000000 0.924143 -0.133994 0.357777
150.00000000 19560.00000000 50.00000000 136 108 133 0.000000 0.000000 0.000000 0.000000 -60.708740 0.000000 32.000000 0.984864 -0.024190 -0.171631
150.00000000 19550.00000000 60.00000000 136 108 133 0.000000 0.000000 0.000000 0.000000 -60.708740 0.000000 32.000000 0.930728 -0.062049 0.360410
150.00000000 19580.00000000 30.00000000 136 108 133 0.000000 0.000000 0.000000 0.000000 -60.708740 0.000000 32.000000 -0.594565 0.706561 -0.383750
150.00000000 19570.00000000 50.00000000 136 108 133 0.000000 0.000000 0.000000 0.000000 -60.708740 0.000000 32.000000 0.947871 -0.318455 -0.011240
140.00000000 19570.00000000 50.00000000 136 108 133 0.000000 0.000000 0.000000 0.000000 -60.708740 0.000000 32.000000 0.869113 -0.421709 -0.258467
150.00000000 19550.00000000 50.00000000 136 108 133 0.000000 0.000000 0.000000 0.000000 -60.708740 0.000000 32.000000 0.970285 -0.063038 -0.233610
140.00000000 19570.00000000 50.00000000 136 108 133 0.000000 0.000000 0.000000 0.000000 -60.708740 0.000000 32.000000 0.869113 -0.421709 -0.258467
150.00000000 19580.00000000 40.00000000 136 108 133 0.000000 0.000000 0.000000 0.000000 -60.708740 0.000000 32.000000 0.784789 -0.585136 -0.204260
150.00000000 19570.00000000 50.00000000 136 108 133 0.000000 0.000000 0.000000 0.000000 -60.708740 0.000000 32.000000 0.947871 -0.318455 -0.011240
160.00000000 19570.00000000 20.00000000 136 108 133 0.000000 0.000000 0.000000 0.000000 -60.708740 0.000000 32.000000 0.700216 -0.492992 0.516388
150.00000000 19550.00000000 -10.00000000 136 108 133 0.000000 0.000000 0.000000 0.000000 -60.708740 0.000000 32.000000 0.885584 -0.463621 -0.028220
130.00000000 19560.00000000 20.00000000 136 108 133 0.000000 0.000000 0.000000 0.000000 -60.708740 0.000000 32.000000 0.863483 -0.432500 0.259500
150.00000000 19520.00000000 40.00000000 136 108 133 0.000000 0.000000 0.000000 0.000000 -60.708740 0.000000 32.000000 0.932094 0.338072 0.130028
140.00000000 19540.00000000 50.00000000 136 108 133 0.000000 0.000000 0.000000 0.000000 -60.708740 0.000000 32.000000 0.990893 -0.127967 -0.041901
140.00000000 19530.00000000 40.00000000 136 108 133 0.000000 0.000000 0.000000 0.000000 -60.708740 0.000000 32.000000 0.901826 0.407597 0.143440
130.00000000 19530.00000000 30.00000000 136 108 133 0.000000 0.000000 0.000000 0.000000 -60.708740 0.000000 32.000000 0.998152 -0.055745 0.024191
130.00000000 19530.00000000 30.00000000 136 108 133 0.000000 0.000000 0.000000 0.000000 -60.708740 0.000000 32.000000 0.998152 -0.055745 0.024191
150.00000000 19540.00000000 30.00000000 136 108 133 0.000000 0.000000 0.000000 0.000000 -60.708740 0.000000 32.000000 0.936623 -0.342151 0.075300
130.00000000 19530.00000000 20.00000000 136 108 133 0.000000 0.000000 0.000000 0.000000 -60.708740 0.000000 32.000000 0.991633 0.127702 0.018878
150.00000000 19540.00000000 -10.00000000 136 108 133 0.000000 0.000000 0.000000 0.000000 -60.708740 0.000000 32.000000 0.927783 -0.189487 0.321425
150.00000000 19520.00000000 -10.00000000 136 108 133 0.000000 0.000000 0.000000 0.000000 -60.708740 0.000000 32.000000 0.868478 0.223494 0.442489
130.00000000 19530.00000000 10.00000000 136 108 133 0.000000 0.000000 0.000000 0.000000 -60.708740 0.000000 32.000000 0.933658 0.319519 0.161834
160.00000000 19510.00000000 10.00000000 136 108 133 0.000000 0.000000 0.000000 0.000000 -60.708740 0.000000 32.000000 0.880224 0.397375 -0.259419
140.00000000 19520.00000000 10.00000000 136 108 133 0.000000 0.000000 0.000000 0.000000 -60.708740 0.000000 32.000000 0.966439 0.177721 0.185504
260.00000000 19470.00000000 280.00000000 136 108 133 0.000000 0.000000 0.000000 0.000000 -60.708740 0.000000 32.000000 -0.582087 0.812698 0.026395
270.00000000 19480.00000000 260.00000000 136 108 133 0.000000 0.000000 0.000000 0.000000 -60.708740 0.000000 32.000000 0.936631 -0.332875 -0.109161
250.00000000 19470.00000000 200.00000000 136 108 133 0.000000 0.000000 0.000000 0.000000 -60.708740 0.000000 32.000000 0.724525 -0.645943 0.240461
250.00000000 19490.00000000 210.00000000 136 108 133 0.000000 0.000000 0.000000 0.000000 -60.708740 0.000000 32.000000 0.937190 -0.324151 0.128847
260.00000000 19490.00000000 210.00000000 136 108 133 0.000000 0.000000 0.000000 0.000000 -60.708740 0.000000 32.000000 0.840132 -0.462614 0.283138
250.00000000 19490.00000000 230.00000000 136 108 133 0.000000 0.000000 0.000000 0.000000 -60.708740 0.000000 32.000000 0.932604 -0.359884 0.027088
280.00000000 19480.00000000 230.00000000 136 108 133 0.000000 0.000000 0.000000 0.000000 -60.708740 0.000000 32.000000 -0.511912 0.858646 0.025937
250.00000000 19490.00000000 230.00000000 136 108 133 0.000000 0.000000 0.000000 0.000000 -60.708740 0.000000 32.000000 0.932604 -0.359884 0.027088
250.00000000 19470.00000000 180.00000000 136 108 133 0.000000 0.000000 0.000000 0.000000 -60.708740 0.000000 32.000000 -0.269174 0.927156 -0.260629
270.00000000 19500.00000000 150.00000000 136 108 133 0.000000 0.000000 0.000000 0.000000 -60.708740 0.000000 32.000000 -0.692971 0.720857 0.012549
250.00000000 19450.00000000 150.00000000 136 108 133 0.000000 0.000000 0.000000 0.000000 -60.708740 0.000000 32.000000 -0.338330 0.939805 0.047962
250.00000000 19460.00000000 180.00000000 136 108 133 0.000000 0.000000 0.000000 0.000000 -60.708740 0.000000 32.000000 0.766036 -0.624567 0.152003
250.00000000 19450.00000000 170.00000000 136 108 133 0.000000 0.000000 0.000000 0.000000 -60.708740 0.000000 32.000000 -0.605729 0.766843 -0.212237
230.00000000 19480.00000000 250.00000000 136 108 133 0.000000 0.000000 0.000000 0.000000 -60.708740 0.000000 32.000000 0.799661 -0.600092 0.020788
230.00000000 19480.00000000 260.00000000 136 108 133 0.000000 0.000000 0.000000 0.000000 -60.708740 0.000000 32.000000 -0.484237 0.873281 -0.053804
240.00000000 19500.00000000 250.00000000 136 108 133 0.000000 0.000000 0.000000 0.000000 -60.708740 0.000000 32.000000 0.685832 -0.721078 0.098396
230.00000000 19480.00000000 240.00000000 136 108 133 0.000000 0.000000 0.000000 0.000000 -60.708740 0.000000 32.000000 -0.583380 0.774191 -0.245552
210.00000000 19470.00000000 240.00000000 136 108 133 0.000000 0.000000 0.000000 0.000000 -60.708740 0.000000 32.000000 -0.411457 0.849310 -0.330719
220.00000000 19480.00000000 240.00000000 136 108 133 0.000000 0.000000 0.000000 0.000000 -60.708740 0.000000 32.000000 -0.359992 0.823064 -0.439285
230.00000000 19480.00000000 240.00000000 136 108 133 0.000000 0.000000 0.000000 0.000000 -60.708740 0.000000 32.000000 -0.583380 0.774191 -0.245552
220.00000000 19440.00000000 290.00000000 136 108 133 0.000000 0.000000 0.000000 0.000000 -60.708740 0.000000 32.000000 -0.435519 0.841380 0.320005
240.00000000 19450.00000000 280.00000000 136 108 133 0.000000 0.000000 0.000000 0.000000 -60.708740 0.000000 32.000000 0.742118 -0.670256 -0.004146
230.00000000 19460.00000000 240.00000000 136 108 133 0.000000 0.000000 0.000000 0.000000 -60.708740 0.000000 32.000000 -0.560553 0.800132 -0.213471
210.00000000 19440.00000000 270.00000000 136 108 133 0.000000 0.000000 0.000000 0.000000 -60.708740 0.000000 32.000000 -0.403860 0.914813 0.003871
220.00000000 19450.00000000 240.00000000 136 108 133 0.000000 0.000000 0.000000 0.000000 -60.708740 0.000000 32.000000 -0.285786 0.956432 0.059698
210.00000000 19460.00000000 250.00000000 136 108 133 0.000000 0.000000 0.000000 0.000000 -60.708740 0.000000 32.000000 -0.045651 0.984433 -0.169730
230.00000000 19460.00000000 250.00000000 136 108 133 0.000000 0.000000 0.000000 0.000000 -60.708740 0.000000 32.000000 -0.410070 0.910220 -0.057813
240.00000000 19430.00000000 260.00000000 136 108 133 0.000000 0.000000 0.000000 0.000000 -60.708740 0.000000 32.000000 -0.401345 0.823313 -0.401345
180.00000000 19480.00000000 260.00000000 136 108 133 0.000000 0.000000 0.000000 0.000000 -60.708740 0.000000 32.000000 0.075931 0.893221 -0.443159
170.00000000 19490.00000000 240.00000000 136 108 133 0.000000 0.000000 0.000000 0.000000 -60.708740 0.000000 32.000000 0.480598 0.876858 -0.012048
170.00000000 19490.00000000 270.00000000 136 108 133 0.000000 0.000000 0.000000 0.000000 -60.708740 0.000000 32.000000 0.232476 0.931312 -0.280380
200.00000000 19460.00000000 270.00000000 136 108 133 0.000000 0.000000 0.000000 0.000000 -60.708740 0.000000 32.000000 -0.264609 0.897306 -0.353305
200.00000000 19460.00000000 250.00000000 136 108 133 0.000000 0.000000 0.000000 0.000000 -60.708740 0.000000 32.000000 -0.124900 0.972708 -0.195551
190.00000000 19460.00000000 250.00000000 136 108 133 0.000000 0.000000 0.000000 0.000000 -60.708740 0.000000 32.000000 0.258966 0.929731 -0.261796
190.00000000 19460.00000000 260.00000000 136 108 133 0.000000 0.000000 0.000000 0.000000 -60.708740 0.000000 32.000000 0.125735 0.985520 0.113760
230.00000000 19500.00000000 230.00000000 136 108 133 0.000000 0.000000 0.000000 0.000000 -60.708740 0.000000 32.000000 -0.689491 0.718769 -0.089297
230.00000000 19470.00000000 230.00000000 136 108 133 0.000000 0.000000 0.000000 0.000000 -60.708740 0.000000 32.000000 0.596913 -0.717931 0.358148
210.00000000 19470.00000000 170.00000000 136 108 133 0.000000 0.000000 0.000000 0.000000 -60.708740 0.000000 32.000000 0.055630 0.983590 -0.171625
230.00000000 19480.00000000 190.00000000 136 108 133 0.000000 0.000000 0.000000 0.000000 -60.708740 0.000000 32.000000 -0.605415 0.764161 -0.222556
240.00000000 19460.00000000 220.00000000 136 108 133 0.000000 0.000000 0.000000 0.000000 -60.708740 0.000000 32.000000 -0.408390 0.795796 -0.447131
210.00000000 19460.00000000 230.00000000 136 108 133 0.000000 0.000000 0.000000 0.000000 -60.708740 0.000000 32.000000 -0.190523 0.935926 -0.296214
220.00000000 19450.00000000 220.00000000 136 108 133 0.000000 0.000000 0.000000 0.000000 -60.708740 0.000000 32.000000 -0.176531 0.980051 -0.091309
230.00000000 19460.00000000 200.00000000 136 108 133 0.000000 0.000000 0.000000 0.000000 -60.708740 0.000000 32.000000 -0.387877 0.919362 -0.065765
240.00000000 19460.00000000 230.00000000 136 108 133 0.000000 0.000000 0.000000 0.000000 -60.708740 0.000000 32.000000 -0.506758 0.697419 -0.506758
240.00000000 19460.00000000 210.00000000 136 108 133 0.000000 0.000000 0.000000 0.000000 -60.708740 0.000000 32.000000 -0.599259 0.781313 -0.174468
220.00000000 19450.00000000 230.00000000 136 108 133 0.000000 0.000000 0.000000 0.000000 -60.708740 0.000000 32.000000 -0.109805 0.990560 -0.082065
210.00000000 19450.00000000 200.00000000 136 108 133 0.000000 0.000000 0.000000 0.000000 -60.708740 0.000000 32.000000 0.013473 0.959044 -0.282936
220.00000000 19460.00000000 160.00000000 136 108 133 0.000000 0.000000 0.000000 0.000000 -60.708740 0.000000 32.000000 -0.052534 0.986475 0.155268
210.00000000 19460.00000000 150.00000000 136 108 133 0.000000 0.000000 0.000000 0.000000 -60.708740 0.000000 32.000000 -0.069649 0.939604 -0.335103
240.00000000 19460.00000000 160.00000000 136 108 133 0.000000 0.000000 0.000000 0.000000 -60.708740 0.000000 32.000000 -0.528006 0.803760 0.274187
170.00000000 19490.00000000 180.00000000 136 108 133 0.000000 0.000000 0.000000 0.000000 -60.708740 0.000000 32.000000 0.252184 0.964380 0.079837
200.00000000 19470.00000000 170.00000000 136 108 133 0.000000 0.000000 0.000000 0.000000 -60.708740 0.000000 32.000000 -0.181769 0.959265 -0.216266
180.00000000 19470.00000000 170.00000000 136 108 133 0.000000 0.000000 0.000000 0.000000 -60.708740 0.000000 32.000000 0.421182 0.905609 0.049788
180.00000000 19460.00000000 220.00000000 136 108 133 0.000000 0.000000 0.000000 0.000000 -60.708740 0.000000 32.000000 0.402284 0.904787 -0.139741
180.00000000 19460.00000000 210.00000000 136 108 133 0.000000 0.000000 0.000000 0.000000 -60.708740 0.000000 32.000000 0.205630 0.969398 0.134106
180.00000000 19460.00000000 220.00000000 136 108 133 0.000000 0.000000 0.000000 0.000000 -60.708740 0.000000 32.000000 0.402284 0.904787 -0.139741
180.00000000 19440.00000000 230.00000000 136 108 133 0.000000 0.000000 0.000000 0.000000 -60.708740 0.000000 32.000000 0.003483 0.978655 -0.205483
170.00000000 19460.00000000 200.00000000 136 108 133 0.000000 0.000000 0.000000 0.000000 -60.708740 0.000000 32.000000 0.361521 0.932343 -0.006342
200.00000000 19460.00000000 180.00000000 136 108 133 0.000000 0.000000 0.000000 0.000000 -60.708740 0.000000 32.000000 -0.099450 0.978537 -0.180483
200.00000000 19460.00000000 160.00000000 136 108 133 0.000000 0.000000 0.000000 0.000000 -60.708740 0.000000 32.000000 -0.132366 0.967688 -0.214613
200.00000000 19460.00000000 190.00000000 136 108 133 0.000000 0.000000 0.000000 0.000000 -60.708740 0.000000 32.000000 0.211179 0.968862 0.129267
190.00000000 19430.00000000 150.00000000 136 108 133 0.000000 0.000000 0.000000 0.000000 -60.708740 0.000000 32.000000 -0.301909 0.947916 0.101515
170.00000000 19460.00000000 190.00000000 136 108 133 0.000000 0.000000 0.000000 0.000000 -60.708740 0.000000 32.000000 0.233532 0.968210 -0.089626
200.00000000 19460.00000000 150.00000000 136 108 133 0.000000 0.000000 0.000000 0.000000 -60.708740 0.000000 32.000000 0.244409 0.960645 -0.132007
190.00000000 19460.00000000 190.00000000 136 108 133 0.000000 0.000000 0.000000 0.000000 -60.708740 0.000000 32.000000 0.349887 0.936044 -0.037442
200.00000000 19430.00000000 150.00000000 136 108 133 0.000000 0.000000 0.000000 0.000000 -60.708740 0.000000 32.000000 -0.269480 0.925359 0.266629
290.00000000 19500.00000000 110.00000000 136 108 133 0.000000 0.000000 0.000000 0.000000 -60.708740 0.000000 32.000000 0.895658 -0.365665 0.253153
290.00000000 19490.00000000 90.00000000 136 108 133 0.000000 0.000000 0.000000 0.000000 -60.708740 0.000000 32.000000 0.918475 -0.325263 0.224962
290.00000000 19500.00000000 80.00000000 136 108 133 0.000000 0.000000 0.000000 0.000000 -60.708740 0.000000 32.000000 0.932374 -0.350143 -0.089884
290.00000000 19470.00000000 80.00000000 136 108 133 0.000000 0.000000 0.000000 0.000000 -60.708740 0.000000 32.000000 0.916067 -0.351895 0.192331
280.00000000 19500.00000000 120.00000000 136 108 133 0.000000 0.000000 0.000000 0.000000 -60.708740 0.000000 32.000000 0.990856 -0.133234 -0.021273
270.00000000 19500.00000000 110.00000000 136 108 133 0.000000 0.000000 0.000000 0.000000 -60.708740 0.000000 32.000000 0.983127 -0.179283 -0.036325
270.00000000 19470.00000000 110.00000000 136 108 133 0.000000 0.000000 0.000000 0.000000 -60.708740 0.000000 32.000000 0.824756 -0.562526 -0.057803
260.00000000 19490.00000000 130.00000000 136 108 133 0.000000 0.000000 0.000000 0.000000 -60.708740 0.000000 32.000000 0.763988 -0.612734 0.202187
260.00000000 19480.00000000 130.00000000 136 108 133 0.000000 0.000000 0.000000 0.000000 -60.708740 0.000000 32.000000 0.715885 -0.513244 0.473381
280.00000000 19480.00000000 100.00000000 136 108 133 0.000000 0.000000 0.000000 0.000000 -60.708740 0.000000 32.000000 0.933404 -0.240742 0.266083
280.00000000 19490.00000000 80.00000000 136 108 133 0.000000 0.000000 0.000000 0.000000 -60.708740 0.000000 32.000000 0.880124 -0.469861 -0.067915
280.00000000 19480.00000000 80.00000000 136 108 133 0.000000 0.000000 0.000000 0.000000 -60.708740 0.000000 32.000000 0.934255 -0.350180 0.067393
270.00000000 19470.00000000 70.00000000 136 108 133 0.000000 0.000000 0.000000 0.000000 -60.708740 0.000000 32.000000 0.811657 -0.564436 0.150417
280.00000000 19460.00000000 110.00000000 136 108 133 0.000000 0.000000 0.000000 0.000000 -60.708740 0.000000 32.000000 0.738047 -0.627890 -0.247065
250.00000000 19450.00000000 120.00000000 136 108 133 0.000000 0.000000 0.000000 0.000000 -60.708740 0.000000 32.000000 -0.617408 0.784888 0.052515
280.00000000 19460.00000000 110.00000000 136 108 133 0.000000 0.000000 0.000000 0.000000 -60.708740 0.000000 32.000000 0.738047 -0.627890 -0.247065
250.00000000 19460.00000000 110.00000000 136 108 133 0.000000 0.000000 0.000000 0.000000 -60.708740 0.000000 32.000000 -0.260443 0.955838 0.136171
260.00000000 19450.00000000 120.00000000 136 108 133 0.000000 0.000000 0.000000 0.000000 -60.708740 0.000000 32.000000 -0.687808 0.665362 -0.290194
260.00000000 19460.00000000 130.00000000 136 108 133 0.000000 0.000000 0.000000 0.000000 -60.708740 0.000000 32.000000 -0.237270 0.960878 -0.142886
270.00000000 19450.00000000 90.00000000 136 108 133 0.000000 0.000000 0.000000 0.000000 -60.708740 0.000000 32.000000 -0.627715 0.773357 -0.088841
260.00000000 19460.00000000 80.00000000 136 108 133 0.000000 0.000000 0.000000 0.000000 -60.708740 0.000000 32.000000 -0.571454 0.808941 -0.138039
290.00000000 19470.00000000 40.00000000 136 108 133 0.000000 0.000000 0.000000 0.000000 -60.708740 0.000000 32.000000 0.874214 -0.433384 0.218926
290.00000000 19470.00000000 10.00000000 136 108 133 0.000000 0.000000 0.000000 0.000000 -60.708740 0.000000 32.000000 0.832060 -0.526222 -0.175407
300.00000000 19470.00000000 20.00000000 136 108 133 0.000000 0.000000 0.000000 0.000000 -60.708740 0.000000 32.000000 0.647752 -0.689961 0.323064
280.00000000 19500.00000000 30.00000000 136 108 133 0.000000 0.000000 0.000000 0.000000 -60.708740 0.000000 32.000000 0.899339 -0.431190 -0.072549
280.00000000 19460.00000000 50.00000000 136 108 133 0.000000 0.000000 0.000000 0.000000 -60.708740 0.000000 32.000000 0.787555 -0.594807 -0.161125
270.00000000 19460.00000000 50.00000000 136 108 133 0.000000 0.000000 0.000000 0.000000 -60.708740 0.000000 32.000000 -0.675735 0.737038 0.012539
270.00000000 19450.00000000 50.00000000 136 108 133 0.000000 0.000000 0.000000 0.000000 -60.708740 0.000000 32.000000 0.780487 -0.611010 -0.132311
280.00000000 19450.00000000 10.00000000 136 108 133 0.000000 0.000000 0.000000 0.000000 -60.708740 0.000000 32.000000 -0.667534 0.743743 -0.035282
270.00000000 19450.00000000 20.00000000 136 108 133 0.000000 0.000000 0.000000 0.000000 -60.708740 0.000000 32.000000 0.827302 -0.555821 0.081444
270.00000000 19440.00000000 0.00000000 136 108 133 0.000000 0.000000 0.000000 0.000000 -60.708740 0.000000 32.000000 -0.592698 0.775305 0.218200
270.00000000 19450.00000000 -10.00000000 136 108 133 0.000000 0.000000 0.000000 0.000000 -60.708740 0.000000 32.000000 -0.570316 0.806826 0.154180
280.00000000 19460.00000000 10.00000000 136 108 133 0.000000 0.000000 0.000000 0.000000 -60.708740 0.000000 32.000000 0.818580 -0.481054 0.313868
260.00000000 19440.00000000 10.00000000 136 108 133 0.000000 0.000000 0.000000 0.000000 -60.708740 0.000000 32.000000 -0.445280 0.855365 0.264719
260.00000000 19410.00000000 80.00000000 136 108 133 0.000000 0.000000 0.000000 0.000000 -60.708740 0.000000 32.000000 -0.509475 0.854833 0.098470
260.00000000 19420.00000000 60.00000000 136 108 133 0.000000 0.000000 0.000000 0.000000 -60.708740 0.000000 32.000000 -0.584378 0.802232 0.122175
240.00000000 19440.00000000 130.00000000 136 108 133 0.000000 0.000000 0.000000 0.000000 -60.708740 0.000000 32.000000 -0.113423 0.981781 -0.152450
230.00000000 19440.00000000 120.00000000 136 108 133 0.000000 0.000000 0.000000 0.000000 -60.708740 0.000000 32.000000 -0.220708 0.956400 0.191280
210.00000000 19450.00000000 120.00000000 136 108 133 0.000000 0.000000 0.000000 0.000000 -60.708740 0.000000 32.000000 0.128215 0.991746 0.001096
230.00000000 19460.00000000 110.00000000 136 108 133 0.000000 0.000000 0.000000 0.000000 -60.708740 0.000000 32.000000 -0.353087 0.928387 -0.115878
210.00000000 19450.00000000 140.00000000 136 108 133 0.000000 0.000000 0.000000 0.000000 -60.708740 0.000000 32.000000 0.187350 0.981523 0.038884
230.00000000 19440.00000000 140.00000000 136 108 133 0.000000 0.000000 0.000000 0.000000 -60.708740 0.000000 32.000000 -0.349809 0.929649 -0.115696
210.00000000 19450.00000000 120.00000000 136 108 133 0.000000 0.000000 0.000000 0.000000 -60.708740 0.000000 32.000000 0.128215 0.991746 0.001096
240.00000000 19450.00000000 130.00000000 136 108 133 0.000000 0.000000 0.000000 0.000000 -60.708740 0.000000 32.000000 -0.379168 0.910288 -0.166152
220.00000000 19450.00000000 120.00000000 136 108 133 0.000000 0.000000 0.000000 0.000000 -60.708740 0.000000 32.000000 -0.009296 0.998778 -0.048545
230.00000000 19450.00000000 140.00000000 136 108 133 0.000000 0.000000 0.000000 0.000000 -60.708740 0.000000 32.000000 -0.286786 0.957988 0.003661
240.00000000 19440.00000000 70.00000000 136 108 133 0.000000 0.000000 0.000000 0.000000 -60.708740 0.000000 32.000000 -0.228538 0.970351 -0.078677
230.00000000 19450.00000000 80.00000000 136 108 133 0.000000 0.000000 0.000000 0.000000 -60.708740 0.000000 32.000000 -0.251639 0.944677 -0.210387
210.00000000 19440.00000000 100.00000000 136 108 133 0.000000 0.000000 0.000000 0.000000 -60.708740 0.000000 32.000000 0.091839 0.994740 -0.045366
230.00000000 19450.00000000 90.00000000 136 108 133 0.000000 0.000000 0.000000 0.000000 -60.708740 0.000000 32.000000 -0.428564 0.899846 -0.081303
220.00000000 19440.00000000 80.00000000 136 108 133 0.000000 0.000000 0.000000 0.000000 -60.708740 0.000000 32.000000 -0.576763 0.808642 -0.115940
220.00000000 19430.00000000 80.00000000 136 108 133 0.000000 0.000000 0.000000 0.000000 -60.708740 0.000000 32.000000 -0.345484 0.867550 -0.357768
210.00000000 19430.00000000 70.00000000 136 108 133 0.000000 0.000000 0.000000 0.000000 -60.708740 0.000000 32.000000 0.207273 0.974306 0.088122
220.00000000 19440.00000000 90.00000000 136 108 133 0.000000 0.000000 0.000000 0.000000 -60.708740 0.000000 32.000000 -0.512973 0.853050 0.095736
230.00000000 19440.00000000 90.00000000 136 108 133 0.000000 0.000000 0.000000 0.000000 -60.708740 0.000000 32.000000 -0.421124 0.905484 -0.052472
170.00000000 19480.00000000 110.00000000 136 108 133 0.000000 0.000000 0.000000 0.000000 -60.708740 0.000000 32.000000 0.233115 0.962413 -0.139348
170.00000000 19470.00000000 120.00000000 136 108 133 0.000000 0.000000 0.000000 0.000000 -60.708740 0.000000 32.000000 0.568946 0.818308 0.081687
170.00000000 19480.00000000 110.00000000 136 108 133 0.000000 0.000000 0.000000 0.000000 -60.708740 0.000000 32.000000 0.233115 0.962413 -0.139348
170.00000000 19480.00000000 120.00000000 136 108 133 0.000000 0.000000 0.000000 0.000000 -60.708740 0.000000 32.000000 0.435605 0.815363 0.381354
200.00000000 19450.00000000 120.00000000 136 108 133 0.000000 0.000000 0.000000 0.000000 -60.708740 0.000000 32.000000 0.228379 0.971535 -0.062958
200.00000000 19450.00000000 120.00000000 136 108 133 0.000000 0.000000 0.000000 0.000000 -60.708740 0.000000 32.000000 0.228379 0.971535 -0.062958
180.00000000 19460.00000000 70.00000000 136 108 133 0.000000 0.000000 0.000000 0.000000 -60.708740 0.000000 32.000000 0.602308 0.791896 -0.100628
170.00000000 19460.00000000 80.00000000 136 108 133 0.000000 0.000000 0.000000 0.000000 -60.708740 0.000000 32.000000 0.340613 0.931557 0.127217
180.00000000 19460.00000000 70.00000000 136 108 133 0.000000 0.000000 0.000000 0.000000 -60.708740 0.000000 32.000000 0.602308 0.791896 -0.100628
200.00000000 19430.00000000 80.00000000 136 108 133 0.000000 0.000000 0.000000 0.000000 -60.708740 0.000000 32.000000 0.324426 0.945287 -0.034351
180.00000000 19460.00000000 70.00000000 136 108 133 0.000000 0.000000 0.000000 0.000000 -60.708740 0.000000 32.000000 0.602308 0.791896 -0.100628
200.00000000 19440.00000000 80.00000000 136 108 133 0.000000 0.000000 0.000000 0.000000 -60.708740 0.000000 32.000000 0.401432 0.907769 -0.121689
190.00000000 19460.00000000 90.00000000 136 108 133 0.000000 0.000000 0.000000 0.000000 -60.708740 0.000000 32.000000 0.041040 0.961322 -0.272354
240.00000000 19450.00000000 60.00000000 136 108 133 0.000000 0.000000 0.000000 0.000000 -60.708740 0.000000 32.000000 -0.188866 0.965169 -0.181051
230.00000000 19430.00000000 40.00000000 136 108 133 0.000000 0.000000 0.000000 0.000000 -60.708740 0.000000 32.000000 -0.096328 0.989976 0.103292
220.00000000 19440.00000000 30.00000000 136 108 133 0.000000 0.000000 0.000000 0.000000 -60.708740 0.000000 32.000000 0.087469 0.983723 0.156964
240.00000000 19450.00000000 50.00000000 136 108 133 0.000000 0.000000 0.000000 0.000000 -60.708740 0.000000 32.000000 -0.226482 0.955511 -0.188958
240.00000000 19440.00000000 30.00000000 136 108 133 0.000000 0.000000 0.000000 0.000000 -60.708740 0.000000 32.000000 0.059946 0.998042 -0.017879
240.00000000 19440.00000000 60.00000000 136 108 133 0.000000 0.000000 0.000000 0.000000 -60.708740 0.000000 32.000000 -0.105034 0.993952 -0.032063
240.00000000 19440.00000000 30.00000000 136 108 133 0.000000 0.000000 0.000000 0.000000 -60.708740 0.000000 32.000000 0.059946 0.998042 -0.017879
220.00000000 19440.00000000 60.00000000 136 108 133 0.000000 0.000000 0.000000 0.000000 -60.708740 0.000000 32.000000 -0.082482 0.993173 0.082482
230.00000000 19440.00000000 30.00000000 136 108 133 0.000000 0.000000 0.000000 0.000000 -60.708740 0.000000 32.000000 0.094357 0.979106 0.180136
210.00000000 19450.00000000 0.00000000 136 108 133 0.000000 0.000000 0.000000 0.000000 -60.708740 0.000000 32.000000 0.231867 0.890545 -0.391367
180.00000000 19470.00000000 30.00000000 136 108 133 0.000000 0.000000 0.000000 0.000000 -60.708740 0.000000 32.000000 0.498528 0.850604 -0.167162
180.00000000 19470.00000000 10.00000000 136 108 133 0.000000 0.000000 0.000000 0.000000 -60.708740 0.000000 32.000000 0.476154 0.821877 0.312722
180.00000000 19470.00000000 10.00000000 136 108 133 0.000000 0.000000 0.000000 0.000000 -60.708740 0.000000 32.000000 0.476154 0.821877 0.312722
170.00000000 19460.00000000 50.00000000 136 108 133 0.000000 0.000000 0.000000 0.000000 -60.708740 0.000000 32.000000 0.568080 0.822110 0.037686
190.00000000 19450.00000000 40.00000000 136 108 133 0.000000 0.000000 0.000000 0.000000 -60.708740 0.000000 32.000000 0.234547 0.916606 0.323762
170.00000000 19460.00000000 30.00000000 136 108 133 0.000000 0.000000 0.000000 0.000000 -60.708740 0.000000 32.000000 0.360475 0.832714 -0.420292
190.00000000 19450.00000000 40.00000000 136 108 133 0.000000 0.000000 0.000000 0.000000 -60.708740 0.000000 32.000000 0.234547 0.916606 0.323762
200.00000000 19440.00000000 -10.00000000 136 108 133 0.000000 0.000000 0.000000 0.000000 -60.708740 0.000000 32.000000 0.326179 0.908327 -0.261820
180.00000000 19450.00000000 20.00000000 136 108 133 0.000000 0.000000 0.000000 0.000000 -60.708740 0.000000 32.000000 0.326539 0.906403 0.267967
180.00000000 19460.00000000 0.00000000 136 108 133 0.000000 0.000000 0.000000 0.000000 -60.708740 0.000000 32.000000 0.470092 0.807920 -0.355357
190.00000000 19450.00000000 -10.00000000 136 108 133 0.000000 0.000000 0.000000 0.000000 -60.708740 0.000000 32.000000 0.546759 0.817880 -0.179241
230.00000000 19400.00000000 50.00000000 136 108 133 0.000000 0.000000 0.000000 0.000000 -60.708740 0.000000 32.000000 0.118038 0.982032 -0.147244
160.00000000 19470.00000000 290.00000000 136 108 133 0.000000 0.000000 0.000000 0.000000 -60.708740 0.000000 32.000000 0.070305 0.932532 0.354177
160.00000000 19480.00000000 280.00000000 136 108 133 0.000000 0.000000 0.000000 0.000000 -60.708740 0.000000 32.000000 0.112287 0.949820 0.291947
160.00000000 19470.00000000 290.00000000 136 108 133 0.000000 0.000000 0.000000 0.000000 -60.708740 0.000000 32.000000 0.070305 0.932532 0.354177
120.00000000 19490.00000000 260.00000000 136 108 133 0.000000 0.000000 0.000000 0.000000 -60.708740 0.000000 32.000000 0.637834 0.720546 -0.271994
150.00000000 19490.00000000 250.00000000 136 108 133 0.000000 0.000000 0.000000 0.000000 -60.708740 0.000000 32.000000 0.581165 0.809017 0.087968
130.00000000 19490.00000000 250.00000000 136 108 133 0.000000 0.000000 0.000000 0.000000 -60.708740 0.000000 32.000000 0.524778 0.815806 0.243039
140.00000000 19480.00000000 270.00000000 136 108 133 0.000000 0.000000 0.000000 0.000000 -60.708740 0.000000 32.000000 0.337271 0.937161 0.089317
150.00000000 19490.00000000 240.00000000 136 108 133 0.000000 0.000000 0.000000 0.000000 -60.708740 0.000000 32.000000 0.647274 0.755887 0.098339
150.00000000 19480.00000000 260.00000000 136 108 133 0.000000 0.000000 0.000000 0.000000 -60.708740 0.000000 32.000000 0.337516 0.940682 0.034650
130.00000000 19500.00000000 260.00000000 136 108 133 0.000000 0.000000 0.000000 0.000000 -60.708740 0.000000 32.000000 0.511108 0.797711 0.320040
150.00000000 19470.00000000 250.00000000 136 108 133 0.000000 0.000000 0.000000 0.000000 -60.708740 0.000000 32.000000 0.292414 0.906629 -0.304169
140.00000000 19500.00000000 250.00000000 136 108 133 0.000000 0.000000 0.000000 0.000000 -60.708740 0.000000 32.000000 0.706461 0.642091 0.297711
150.00000000 19470.00000000 260.00000000 136 108 133 0.000000 0.000000 0.000000 0.000000 -60.708740 0.000000 32.000000 0.471890 0.865867 0.166117
150.00000000 19480.00000000 260.00000000 136 108 133 0.000000 0.000000 0.000000 0.000000 -60.708740 0.000000 32.000000 0.337516 0.940682 0.034650
130.00000000 19500.00000000 240.00000000 136 108 133 0.000000 0.000000 0.000000 0.000000 -60.708740 0.000000 32.000000 0.659178 0.737615 0.146316
160.00000000 19470.00000000 200.00000000 136 108 133 0.000000 0.000000 0.000000 0.000000 -60.708740 0.000000 32.000000 0.444721 0.824554 0.349763
140.00000000 19500.00000000 220.00000000 136 108 133 0.000000 0.000000 0.000000 0.000000 -60.708740 0.000000 32.000000 0.777696 0.566314 -0.272904
150.00000000 19490.00000000 230.00000000 136 108 133 0.000000 0.000000 0.000000 0.000000 -60.708740 0.000000 32.000000 0.686083 0.707476 -0.169611
130.00000000 19500.00000000 200.00000000 136 108 133 0.000000 0.000000 0.000000 0.000000 -60.708740 0.000000 32.000000 0.822172 0.555442 -0.124571
140.00000000 19500.00000000 230.00000000 136 108 133 0.000000 0.000000 0.000000 0.000000 -60.708740 0.000000 32.000000 0.699895 0.708662 -0.089131
160.00000000 19470.00000000 200.00000000 136 108 133 0.000000 0.000000 0.000000 0.000000 -60.708740 0.000000 32.000000 0.444721 0.824554 0.349763
160.00000000 19470.00000000 220.00000000 136 108 133 0.000000 0.000000 0.000000 0.000000 -60.708740 0.000000 32.000000 0.050072 0.986296 -0.157202
150.00000000 19470.00000000 230.00000000 136 108 133 0.000000 0.000000 0.000000 0.000000 -60.708740 0.000000 32.000000 0.455886 0.862120 -0.221172
150.00000000 19470.00000000 230.00000000 136 108 133 0.000000 0.000000 0.000000 0.000000 -60.708740 0.000000 32.000000 0.455886 0.862120 -0.221172
160.00000000 19470.00000000 220.00000000 136 108 133 0.000000 0.000000 0.000000 0.000000 -60.708740 0.000000 32.000000 0.050072 0.986296 -0.157202
160.00000000 19470.00000000 220.00000000 136 108 133 0.000000 0.000000 0.000000 0.000000 -60.708740 0.000000 32.000000 0.050072 0.986296 -0.157202
140.00000000 19500.00000000 220.00000000 136 108 133 0.000000 0.000000 0.000000 0.000000 -60.708740 0.000000 32.000000 0.777696 0.566314 -0.272904
150.00000000 19480.00000000 190.00000000 136 108 133 0.000000 0.000000 0.000000 0.000000 -60.708740 0.000000 32.000000 0.496921 0.845217 0.196667
130.00000000 19490.00000000 170.00000000 136 108 133 0.000000 0.000000 0.000000 0.000000 -60.708740 0.000000 32.000000 0.560696 0.823027 0.090807
150.00000000 19490.00000000 180.00000000 136 108 133 0.000000 0.000000 0.000000 0.000000 -60.708740 0.000000 32.000000 0.719485 0.694338 0.015368
130.00000000 19490.00000000 170.00000000 136 108 133 0.000000 0.000000 0.000000 0.000000 -60.708740 0.000000 32.000000 0.560696 0.823027 0.090807
130.00000000 19500.00000000 150.00000000 136 108 133 0.000000 0.000000 0.000000 0.000000 -60.708740 0.000000 32.000000 0.815189 0.524382 -0.245949
150.00000000 19480.00000000 170.00000000 136 108 133 0.000000 0.000000 0.000000 0.000000 -60.708740 0.000000 32.000000 0.726047 0.682222 -0.086191
140.00000000 19490.00000000 150.00000000 136 108 133 0.000000 0.000000 0.000000 0.000000 -60.708740 0.000000 32.000000 0.624886 0.709286 0.326239
130.00000000 19500.00000000 150.00000000 136 108 133 0.000000 0.000000 0.000000 0.000000 -60.708740 0.000000 32.000000 0.815189 0.524382 -0.245949
150.00000000 19480.00000000 170.00000000 136 108 133 0.000000 0.000000 0.000000 0.000000 -60.708740 0.000000 32.000000 0.726047 0.682222 -0.086191
130.00000000 19480.00000000 190.00000000 136 108 133 0.000000 0.000000 0.000000 0.000000 -60.708740 0.000000 32.000000 0.652222 0.756917 -0.041029
130.00000000 19490.00000000 150.00000000 136 108 133 0.000000 0.000000 0.000000 0.000000 -60.708740 0.000000 32.000000 0.819302 0.550678 0.159682
130.00000000 19500.00000000 180.00000000 136 108 133 0.000000 0.000000 0.000000 0.000000 -60.708740 0.000000 32.000000 0.653246 0.748048 0.117021
140.00000000 19480.00000000 160.00000000 136 108 133 0.000000 0.000000 0.000000 0.000000 -60.708740 0.000000 32.000000 0.767256 0.602954 -0.218552
160.00000000 19470.00000000 150.00000000 136 108 133 0.000000 0.000000 0.000000 0.000000 -60.708740 0.000000 32.000000 0.506218 0.838660 0.200976
160.00000000 19480.00000000 170.00000000 136 108 133 0.000000 0.000000 0.000000 0.000000 -60.708740 0.000000 32.000000 0.663412 0.737952 0.123737
130.00000000 19480.00000000 190.00000000 136 108 133 0.000000 0.000000 0.000000 0.000000 -60.708740 0.000000 32.000000 0.652222 0.756917 -0.041029
130.00000000 19500.00000000 150.00000000 136 108 133 0.000000 0.000000 0.000000 0.000000 -60.708740 0.000000 32.000000 0.815189 0.524382 -0.245949
140.00000000 19500.00000000 180.00000000 136 108 133 0.000000 0.000000 0.000000 0.000000 -60.708740 0.000000 32.000000 0.456558 0.886908 0.070346
140.00000000 19490.00000000 170.00000000 136 108 133 0.000000 0.000000 0.000000 0.000000 -60.708740 0.000000 32.000000 0.610045 0.714159 -0.343252
140.00000000 19500.00000000 170.00000000 136 108 133 0.000000 0.000000 0.000000 0.000000 -60.708740 0.000000 32.000000 0.642326 0.764809 0.049848
120.00000000 19500.00000000 190.00000000 136 108 133 0.000000 0.000000 0.000000 0.000000 -60.708740 0.000000 32.000000 0.949085 0.306866 0.071214
