//X Y Z R G B PointSourceId ScanDirectionFlag NumberOfReturns ReturnNumber GpsTime Intensity Classification Nx Ny Nz
-16610.00000000 6670.00000000 -710.00000000 88 214 104 0.000000 0.000000 0.000000 0.000000 -60.708740 0.000000 89.000000 0.698348 -0.268840 -0.663351
-16680.00000000 6690.00000000 -770.00000000 88 214 104 0.000000 0.000000 0.000000 0.000000 -60.708740 0.000000 89.000000 0.928359 -0.228192 -0.293390
-16530.00000000 6680.00000000 -890.00000000 88 214 104 0.000000 0.000000 0.000000 0.000000 -60.708740 0.000000 89.000000 -0.618395 0.198935 0.760271
-16530.00000000 6670.00000000 -950.00000000 88 214 104 0.000000 0.000000 0.000000 0.000000 -60.708740 0.000000 89.000000 -0.622638 -0.061548 0.780086
-16530.00000000 6610.00000000 -930.00000000 88 214 104 0.000000 0.000000 0.000000 0.000000 -60.708740 0.000000 89.000000 0.802494 0.029308 -0.595939
-16520.00000000 6600.00000000 -910.00000000 88 214 104 0.000000 0.000000 0.000000 0.000000 -60.708740 0.000000 89.000000 0.818141 -0.310547 -0.483948
-16520.00000000 6490.00000000 -700.00000000 88 214 104 0.000000 0.000000 0.000000 0.000000 -60.708740 0.000000 89.000000 0.767250 0.110449 -0.631766
-16560.00000000 6490.00000000 -860.00000000 88 214 104 0.000000 0.000000 0.000000 0.000000 -60.708740 0.000000 89.000000 -0.465506 0.106118 0.878660
-16550.00000000 6470.00000000 -780.00000000 88 214 104 0.000000 0.000000 0.000000 0.000000 -60.708740 0.000000 89.000000 0.767091 -0.475956 -0.430160
-16520.00000000 6430.00000000 -770.00000000 88 214 104 0.000000 0.000000 0.000000 0.000000 -60.708740 0.000000 89.000000 0.756837 -0.058658 -0.650966
-16550.00000000 6450.00000000 -740.00000000 88 214 104 0.000000 0.000000 0.000000 0.000000 -60.708740 0.000000 89.000000 0.790097 -0.473412 -0.389394
-16520.00000000 6380.00000000 -730.00000000 88 214 104 0.000000 0.000000 0.000000 0.000000 -60.708740 0.000000 89.000000 -0.258084 0.714084 0.650751
-16550.00000000 6420.00000000 -820.00000000 88 214 104 0.000000 0.000000 0.000000 0.000000 -60.708740 0.000000 89.000000 0.572517 -0.686019 -0.449000
-16550.00000000 6390.00000000 -790.00000000 88 214 104 0.000000 0.000000 0.000000 0.000000 -60.708740 0.000000 89.000000 -0.606617 0.373176 0.701966
-16530.00000000 6380.00000000 -820.00000000 88 214 104 0.000000 0.000000 0.000000 0.000000 -60.708740 0.000000 89.000000 0.731509 -0.392878 -0.557262
-16630.00000000 6390.00000000 -770.00000000 88 214 104 0.000000 0.000000 0.000000 0.000000 -60.708740 0.000000 89.000000 -0.626625 0.692069 0.358305
-16610.00000000 6380.00000000 -820.00000000 88 214 104 0.000000 0.000000 0.000000 0.000000 -60.708740 0.000000 89.000000 -0.204364 0.576215 0.791335
-16580.00000000 6440.00000000 -910.00000000 88 214 104 0.000000 0.000000 0.000000 0.000000 -60.708740 0.000000 89.000000 -0.440137 0.546434 0.712523
-16750.00000000 6660.00000000 -730.00000000 88 214 104 0.000000 0.000000 0.000000 0.000000 -60.708740 0.000000 89.000000 0.732646 -0.481264 -0.481264
-16780.00000000 6640.00000000 -700.00000000 88 214 104 0.000000 0.000000 0.000000 0.000000 -60.708740 0.000000 89.000000 0.855398 -0.234667 -0.461764
-16830.00000000 6600.00000000 -820.00000000 88 214 104 0.000000 0.000000 0.000000 0.000000 -60.708740 0.000000 89.000000 -0.030947 0.889377 0.456125
-16750.00000000 6650.00000000 -870.00000000 88 214 104 0.000000 0.000000 0.000000 0.000000 -60.708740 0.000000 89.000000 0.472163 -0.692395 -0.545574
-16700.00000000 6700.00000000 -910.00000000 88 214 104 0.000000 0.000000 0.000000 0.000000 -60.708740 0.000000 89.000000 0.852258 -0.245462 -0.461957
-16720.00000000 6680.00000000 -930.00000000 88 214 104 0.000000 0.000000 0.000000 0.000000 -60.708740 0.000000 89.000000 -0.574480 0.664923 0.477337
-16730.00000000 6650.00000000 -870.00000000 88 214 104 0.000000 0.000000 0.000000 0.000000 -60.708740 0.000000 89.000000 0.728263 -0.530096 -0.434316
-16740.00000000 6690.00000000 -980.00000000 88 214 104 0.000000 0.000000 0.000000 0.000000 -60.708740 0.000000 89.000000 0.596329 -0.609843 -0.521999
-16830.00000000 6570.00000000 -930.00000000 88 214 104 0.000000 0.000000 0.000000 0.000000 -60.708740 0.000000 89.000000 0.101140 0.637622 0.763681
-16790.00000000 6540.00000000 -930.00000000 88 214 104 0.000000 0.000000 0.000000 0.000000 -60.708740 0.000000 89.000000 -0.286747 0.857174 0.427820
-16720.00000000 6390.00000000 -740.00000000 88 214 104 0.000000 0.000000 0.000000 0.000000 -60.708740 0.000000 89.000000 0.006772 0.532298 0.846530
-16800.00000000 6530.00000000 -700.00000000 88 214 104 0.000000 0.000000 0.000000 0.000000 -60.708740 0.000000 89.000000 0.119788 0.921125 0.370378
-16810.00000000 6530.00000000 -750.00000000 88 214 104 0.000000 0.000000 0.000000 0.000000 -60.708740 0.000000 89.000000 -0.462939 0.820018 0.336539
-16800.00000000 6530.00000000 -710.00000000 88 214 104 0.000000 0.000000 0.000000 0.000000 -60.708740 0.000000 89.000000 0.206930 0.804727 0.556412
-16740.00000000 6450.00000000 -900.00000000 88 214 104 0.000000 0.000000 0.000000 0.000000 -60.708740 0.000000 89.000000 -0.041073 0.664243 0.746388
-16790.00000000 6480.00000000 -910.00000000 88 214 104 0.000000 0.000000 0.000000 0.000000 -60.708740 0.000000 89.000000 -0.154288 0.804394 0.573711
-16760.00000000 6660.00000000 -1090.00000000 88 214 104 0.000000 0.000000 0.000000 0.000000 -60.708740 0.000000 89.000000 0.822511 -0.258680 -0.506518
-16750.00000000 6680.00000000 -1050.00000000 88 214 104 0.000000 0.000000 0.000000 0.000000 -60.708740 0.000000 89.000000 0.882610 -0.185890 -0.431791
-16820.00000000 6610.00000000 -1080.00000000 88 214 104 0.000000 0.000000 0.000000 0.000000 -60.708740 0.000000 89.000000 -0.184576 0.367722 0.911434
-16870.00000000 6570.00000000 -770.00000000 88 214 104 0.000000 0.000000 0.000000 0.000000 -60.708740 0.000000 89.000000 0.227425 0.682275 0.694823
-16660.00000000 6360.00000000 -60.00000000 88 214 104 0.000000 0.000000 0.000000 0.000000 -60.708740 0.000000 89.000000 0.877468 0.266401 -0.398849
-16650.00000000 6350.00000000 -50.00000000 88 214 104 0.000000 0.000000 0.000000 0.000000 -60.708740 0.000000 89.000000 0.838906 0.207081 -0.503343
-16590.00000000 6360.00000000 -290.00000000 88 214 104 0.000000 0.000000 0.000000 0.000000 -60.708740 0.000000 89.000000 -0.055483 0.792407 0.607464
-16680.00000000 6360.00000000 -330.00000000 88 214 104 0.000000 0.000000 0.000000 0.000000 -60.708740 0.000000 89.000000 0.192279 0.819078 0.540500
-16600.00000000 6350.00000000 -280.00000000 88 214 104 0.000000 0.000000 0.000000 0.000000 -60.708740 0.000000 89.000000 -0.004065 0.548741 0.835983
-16810.00000000 6350.00000000 -60.00000000 88 214 104 0.000000 0.000000 0.000000 0.000000 -60.708740 0.000000 89.000000 0.780563 -0.020871 -0.624729
-16690.00000000 6340.00000000 -230.00000000 88 214 104 0.000000 0.000000 0.000000 0.000000 -60.708740 0.000000 89.000000 0.616476 0.780479 -0.103966
-16690.00000000 6250.00000000 -200.00000000 88 214 104 0.000000 0.000000 0.000000 0.000000 -60.708740 0.000000 89.000000 0.855490 0.493269 -0.157552
-16520.00000000 6340.00000000 -500.00000000 88 214 104 0.000000 0.000000 0.000000 0.000000 -60.708740 0.000000 89.000000 0.514965 -0.606140 -0.606140
-16650.00000000 6330.00000000 -410.00000000 88 214 104 0.000000 0.000000 0.000000 0.000000 -60.708740 0.000000 89.000000 0.275311 0.791324 0.545903
-16540.00000000 6350.00000000 -550.00000000 88 214 104 0.000000 0.000000 0.000000 0.000000 -60.708740 0.000000 89.000000 -0.409355 0.230728 0.882719
-16550.00000000 6360.00000000 -560.00000000 88 214 104 0.000000 0.000000 0.000000 0.000000 -60.708740 0.000000 89.000000 0.726088 -0.304281 -0.616611
-16540.00000000 6350.00000000 -530.00000000 88 214 104 0.000000 0.000000 0.000000 0.000000 -60.708740 0.000000 89.000000 0.738858 -0.223376 -0.635761
-16540.00000000 6350.00000000 -690.00000000 88 214 104 0.000000 0.000000 0.000000 0.000000 -60.708740 0.000000 89.000000 0.595738 -0.511355 -0.619365
-16520.00000000 6290.00000000 -660.00000000 88 214 104 0.000000 0.000000 0.000000 0.000000 -60.708740 0.000000 89.000000 -0.414461 0.502923 0.758479
-16570.00000000 6290.00000000 -660.00000000 88 214 104 0.000000 0.000000 0.000000 0.000000 -60.708740 0.000000 89.000000 -0.198067 0.466127 0.862261
-16590.00000000 6240.00000000 -630.00000000 88 214 104 0.000000 0.000000 0.000000 0.000000 -60.708740 0.000000 89.000000 -0.129444 0.766251 0.629367
-16570.00000000 6220.00000000 -640.00000000 88 214 104 0.000000 0.000000 0.000000 0.000000 -60.708740 0.000000 89.000000 -0.403446 0.416203 0.814866
-16590.00000000 6220.00000000 -660.00000000 88 214 104 0.000000 0.000000 0.000000 0.000000 -60.708740 0.000000 89.000000 -0.567036 0.473367 0.674087
-16620.00000000 6350.00000000 -640.00000000 88 214 104 0.000000 0.000000 0.000000 0.000000 -60.708740 0.000000 89.000000 -0.082341 0.787294 0.611055
-16620.00000000 6250.00000000 -690.00000000 88 214 104 0.000000 0.000000 0.000000 0.000000 -60.708740 0.000000 89.000000 -0.272102 0.456578 0.847052
-16590.00000000 6140.00000000 -630.00000000 88 214 104 0.000000 0.000000 0.000000 0.000000 -60.708740 0.000000 89.000000 -0.352776 0.802926 0.480478
-16530.00000000 6320.00000000 -720.00000000 88 214 104 0.000000 0.000000 0.000000 0.000000 -60.708740 0.000000 89.000000 -0.461010 0.275989 0.843386
-16610.00000000 6330.00000000 -710.00000000 88 214 104 0.000000 0.000000 0.000000 0.000000 -60.708740 0.000000 89.000000 -0.449792 0.763828 0.462876
-16600.00000000 6320.00000000 -700.00000000 88 214 104 0.000000 0.000000 0.000000 0.000000 -60.708740 0.000000 89.000000 -0.485485 0.814414 0.317859
-16620.00000000 6360.00000000 -700.00000000 88 214 104 0.000000 0.000000 0.000000 0.000000 -60.708740 0.000000 89.000000 0.511355 -0.619365 -0.595738
-16650.00000000 6320.00000000 -750.00000000 88 214 104 0.000000 0.000000 0.000000 0.000000 -60.708740 0.000000 89.000000 0.369362 -0.632019 -0.681267
-16610.00000000 6330.00000000 -710.00000000 88 214 104 0.000000 0.000000 0.000000 0.000000 -60.708740 0.000000 89.000000 -0.449792 0.763828 0.462876
-16640.00000000 6290.00000000 -720.00000000 88 214 104 0.000000 0.000000 0.000000 0.000000 -60.708740 0.000000 89.000000 0.155233 -0.767121 -0.622438
-16600.00000000 6270.00000000 -700.00000000 88 214 104 0.000000 0.000000 0.000000 0.000000 -60.708740 0.000000 89.000000 0.076989 0.678376 0.730670
-16080.00000000 6140.00000000 0.00000000 88 214 104 0.000000 0.000000 0.000000 0.000000 -60.708740 0.000000 93.000000 0.915765 -0.003875 -0.401697
-16160.00000000 6100.00000000 80.00000000 88 214 104 0.000000 0.000000 0.000000 0.000000 -60.708740 0.000000 93.000000 0.837087 0.194566 -0.511302
-16170.00000000 6050.00000000 100.00000000 88 214 104 0.000000 0.000000 0.000000 0.000000 -60.708740 0.000000 93.000000 0.849775 -0.042974 -0.525391
-16110.00000000 6080.00000000 0.00000000 88 214 104 0.000000 0.000000 0.000000 0.000000 -60.708740 0.000000 93.000000 0.875887 0.076832 -0.476360
-16070.00000000 5970.00000000 50.00000000 88 214 104 0.000000 0.000000 0.000000 0.000000 -60.708740 0.000000 93.000000 -0.347562 0.270655 0.897745
-16030.00000000 5950.00000000 -10.00000000 88 214 104 0.000000 0.000000 0.000000 0.000000 -60.708740 0.000000 93.000000 -0.525914 0.327697 0.784875
-16080.00000000 5970.00000000 40.00000000 88 214 104 0.000000 0.000000 0.000000 0.000000 -60.708740 0.000000 93.000000 0.753843 0.006916 -0.657019
-16040.00000000 5940.00000000 10.00000000 88 214 104 0.000000 0.000000 0.000000 0.000000 -60.708740 0.000000 93.000000 0.525045 -0.471707 -0.708393
-16160.00000000 5990.00000000 -10.00000000 88 214 104 0.000000 0.000000 0.000000 0.000000 -60.708740 0.000000 93.000000 -0.697195 0.618453 0.362541
-16140.00000000 6000.00000000 0.00000000 88 214 104 0.000000 0.000000 0.000000 0.000000 -60.708740 0.000000 93.000000 0.657111 -0.549553 -0.515942
-16200.00000000 6210.00000000 90.00000000 88 214 104 0.000000 0.000000 0.000000 0.000000 -60.708740 0.000000 93.000000 0.771773 0.525841 -0.357572
-16210.00000000 6200.00000000 70.00000000 88 214 104 0.000000 0.000000 0.000000 0.000000 -60.708740 0.000000 93.000000 0.976463 -0.084963 -0.198248
-16260.00000000 6200.00000000 100.00000000 88 214 104 0.000000 0.000000 0.000000 0.000000 -60.708740 0.000000 93.000000 0.896729 0.442421 0.011886
-16280.00000000 6150.00000000 150.00000000 88 214 104 0.000000 0.000000 0.000000 0.000000 -60.708740 0.000000 93.000000 0.864265 0.172264 -0.472622
-16240.00000000 6180.00000000 20.00000000 88 214 104 0.000000 0.000000 0.000000 0.000000 -60.708740 0.000000 93.000000 0.905648 0.161163 -0.392210
-16230.00000000 6080.00000000 0.00000000 88 214 104 0.000000 0.000000 0.000000 0.000000 -60.708740 0.000000 93.000000 -0.315673 0.345881 0.883582
-16280.00000000 6170.00000000 90.00000000 88 214 104 0.000000 0.000000 0.000000 0.000000 -60.708740 0.000000 93.000000 0.887666 0.179282 -0.424155
-16270.00000000 6140.00000000 70.00000000 88 214 104 0.000000 0.000000 0.000000 0.000000 -60.708740 0.000000 93.000000 0.850131 -0.157650 -0.502417
-16760.00000000 6810.00000000 0.00000000 88 214 104 0.000000 0.000000 0.000000 0.000000 -60.708740 0.000000 89.000000 -0.257836 0.637471 0.726052
-16560.00000000 6620.00000000 40.00000000 88 214 104 0.000000 0.000000 0.000000 0.000000 -60.708740 0.000000 89.000000 -0.009337 0.481539 0.876375
-16520.00000000 6540.00000000 90.00000000 88 214 104 0.000000 0.000000 0.000000 0.000000 -60.708740 0.000000 89.000000 -0.162932 0.957722 0.237112
-16600.00000000 6620.00000000 120.00000000 88 214 104 0.000000 0.000000 0.000000 0.000000 -60.708740 0.000000 89.000000 0.586086 -0.592842 -0.552306
-16670.00000000 6650.00000000 -10.00000000 88 214 104 0.000000 0.000000 0.000000 0.000000 -60.708740 0.000000 89.000000 -0.105025 0.525127 0.844519
-16560.00000000 6390.00000000 300.00000000 88 214 104 0.000000 0.000000 0.000000 0.000000 -60.708740 0.000000 89.000000 -0.290634 0.394106 0.871902
-16560.00000000 6440.00000000 160.00000000 88 214 104 0.000000 0.000000 0.000000 0.000000 -60.708740 0.000000 89.000000 -0.175433 0.372261 0.911397
-16550.00000000 6510.00000000 140.00000000 88 214 104 0.000000 0.000000 0.000000 0.000000 -60.708740 0.000000 89.000000 -0.451856 0.733232 0.508131
-16580.00000000 6510.00000000 30.00000000 88 214 104 0.000000 0.000000 0.000000 0.000000 -60.708740 0.000000 89.000000 -0.161455 0.452366 0.877096
-16520.00000000 6420.00000000 110.00000000 88 214 104 0.000000 0.000000 0.000000 0.000000 -60.708740 0.000000 89.000000 -0.014399 0.909733 0.414943
-16800.00000000 6550.00000000 190.00000000 88 214 104 0.000000 0.000000 0.000000 0.000000 -60.708740 0.000000 89.000000 -0.394416 0.707968 0.585848
-16770.00000000 6570.00000000 220.00000000 88 214 104 0.000000 0.000000 0.000000 0.000000 -60.708740 0.000000 89.000000 -0.312959 0.377077 0.871705
-16700.00000000 6650.00000000 90.00000000 88 214 104 0.000000 0.000000 0.000000 0.000000 -60.708740 0.000000 89.000000 -0.115434 0.822647 0.556711
-16710.00000000 6700.00000000 0.00000000 88 214 104 0.000000 0.000000 0.000000 0.000000 -60.708740 0.000000 89.000000 0.146772 -0.475193 -0.867554
-16700.00000000 6650.00000000 50.00000000 88 214 104 0.000000 0.000000 0.000000 0.000000 -60.708740 0.000000 89.000000 0.624375 -0.597448 -0.503202
-16710.00000000 6630.00000000 40.00000000 88 214 104 0.000000 0.000000 0.000000 0.000000 -60.708740 0.000000 89.000000 -0.475920 0.810178 0.342217
-16810.00000000 6540.00000000 30.00000000 88 214 104 0.000000 0.000000 0.000000 0.000000 -60.708740 0.000000 89.000000 0.523914 -0.544130 -0.655314
-16810.00000000 6600.00000000 10.00000000 88 214 104 0.000000 0.000000 0.000000 0.000000 -60.708740 0.000000 89.000000 -0.278746 0.493646 0.823781
-16820.00000000 6560.00000000 -10.00000000 88 214 104 0.000000 0.000000 0.000000 0.000000 -60.708740 0.000000 89.000000 -0.637086 0.663563 0.392180
-16800.00000000 6530.00000000 160.00000000 88 214 104 0.000000 0.000000 0.000000 0.000000 -60.708740 0.000000 89.000000 -0.463818 0.480324 0.744420
-16810.00000000 6460.00000000 150.00000000 88 214 104 0.000000 0.000000 0.000000 0.000000 -60.708740 0.000000 89.000000 0.885650 -0.166693 -0.433403
-16770.00000000 6400.00000000 160.00000000 88 214 104 0.000000 0.000000 0.000000 0.000000 -60.708740 0.000000 89.000000 -0.521339 0.221684 0.824052
-16830.00000000 6510.00000000 30.00000000 88 214 104 0.000000 0.000000 0.000000 0.000000 -60.708740 0.000000 89.000000 -0.334986 0.334986 0.880664
-16840.00000000 6390.00000000 40.00000000 88 214 104 0.000000 0.000000 0.000000 0.000000 -60.708740 0.000000 89.000000 0.968135 0.113523 -0.223220
-16790.00000000 6410.00000000 10.00000000 88 214 104 0.000000 0.000000 0.000000 0.000000 -60.708740 0.000000 89.000000 0.861176 -0.377438 -0.340465
-16800.00000000 6430.00000000 10.00000000 88 214 104 0.000000 0.000000 0.000000 0.000000 -60.708740 0.000000 89.000000 -0.584988 0.157902 0.795523
-16680.00000000 6360.00000000 160.00000000 88 214 104 0.000000 0.000000 0.000000 0.000000 -60.708740 0.000000 89.000000 0.621864 0.098035 -0.776965
-16680.00000000 6320.00000000 60.00000000 88 214 104 0.000000 0.000000 0.000000 0.000000 -60.708740 0.000000 89.000000 0.669089 -0.448840 -0.592336
-16650.00000000 6350.00000000 120.00000000 88 214 104 0.000000 0.000000 0.000000 0.000000 -60.708740 0.000000 89.000000 0.801670 -0.134846 -0.582359
-16690.00000000 6360.00000000 10.00000000 88 214 104 0.000000 0.000000 0.000000 0.000000 -60.708740 0.000000 89.000000 0.958496 -0.182128 -0.219351
-16800.00000000 6330.00000000 -10.00000000 88 214 104 0.000000 0.000000 0.000000 0.000000 -60.708740 0.000000 89.000000 0.866512 0.304120 -0.395814
-16930.00000000 6360.00000000 130.00000000 88 214 104 0.000000 0.000000 0.000000 0.000000 -60.708740 0.000000 89.000000 0.864521 0.150161 -0.479641
-16480.00000000 6380.00000000 -300.00000000 88 214 104 0.000000 0.000000 0.000000 0.000000 -60.708740 0.000000 89.000000 -0.506752 0.167927 0.845578
-16450.00000000 6400.00000000 -230.00000000 88 214 104 0.000000 0.000000 0.000000 0.000000 -60.708740 0.000000 89.000000 0.833455 0.244050 -0.495775
-16510.00000000 6490.00000000 -420.00000000 88 214 104 0.000000 0.000000 0.000000 0.000000 -60.708740 0.000000 89.000000 0.839219 0.371766 -0.396864
-16510.00000000 6420.00000000 -440.00000000 88 214 104 0.000000 0.000000 0.000000 0.000000 -60.708740 0.000000 89.000000 0.813283 -0.112429 -0.570904
-16500.00000000 6390.00000000 -430.00000000 88 214 104 0.000000 0.000000 0.000000 0.000000 -60.708740 0.000000 89.000000 -0.674630 0.601337 0.428099
-16500.00000000 6370.00000000 -490.00000000 88 214 104 0.000000 0.000000 0.000000 0.000000 -60.708740 0.000000 89.000000 -0.500362 0.151136 0.852523
-16500.00000000 6510.00000000 -600.00000000 88 214 104 0.000000 0.000000 0.000000 0.000000 -60.708740 0.000000 89.000000 0.909243 -0.017057 -0.415916
-16460.00000000 6430.00000000 -570.00000000 88 214 104 0.000000 0.000000 0.000000 0.000000 -60.708740 0.000000 89.000000 0.755943 -0.249885 -0.605068
-16490.00000000 6630.00000000 -910.00000000 88 214 104 0.000000 0.000000 0.000000 0.000000 -60.708740 0.000000 89.000000 0.787434 -0.164742 -0.593976
-16510.00000000 6380.00000000 -730.00000000 88 214 104 0.000000 0.000000 0.000000 0.000000 -60.708740 0.000000 89.000000 0.785366 -0.501538 -0.362849
-15980.00000000 6060.00000000 -140.00000000 88 214 104 0.000000 0.000000 0.000000 0.000000 -60.708740 0.000000 93.000000 0.862474 -0.327463 -0.385884
-15980.00000000 6050.00000000 -120.00000000 88 214 104 0.000000 0.000000 0.000000 0.000000 -60.708740 0.000000 93.000000 0.705251 0.035333 -0.708077
-15980.00000000 6050.00000000 -130.00000000 88 214 104 0.000000 0.000000 0.000000 0.000000 -60.708740 0.000000 93.000000 0.916618 0.097279 -0.387747
-16050.00000000 6070.00000000 -100.00000000 88 214 104 0.000000 0.000000 0.000000 0.000000 -60.708740 0.000000 93.000000 -0.690873 0.126834 0.711764
-16170.00000000 6130.00000000 -170.00000000 88 214 104 0.000000 0.000000 0.000000 0.000000 -60.708740 0.000000 93.000000 0.662488 -0.330430 -0.672254
-16140.00000000 6130.00000000 -320.00000000 88 214 104 0.000000 0.000000 0.000000 0.000000 -60.708740 0.000000 93.000000 0.410913 -0.363681 -0.835995
-16130.00000000 6140.00000000 -320.00000000 88 214 104 0.000000 0.000000 0.000000 0.000000 -60.708740 0.000000 93.000000 0.722896 -0.133204 -0.677996
-16120.00000000 6180.00000000 -290.00000000 88 214 104 0.000000 0.000000 0.000000 0.000000 -60.708740 0.000000 93.000000 -0.508178 -0.048464 0.859887
-16160.00000000 6060.00000000 -250.00000000 88 214 104 0.000000 0.000000 0.000000 0.000000 -60.708740 0.000000 93.000000 -0.423540 0.128904 0.896659
-16170.00000000 6100.00000000 -330.00000000 88 214 104 0.000000 0.000000 0.000000 0.000000 -60.708740 0.000000 93.000000 -0.426770 0.685820 0.589507
-16170.00000000 5990.00000000 -200.00000000 88 214 104 0.000000 0.000000 0.000000 0.000000 -60.708740 0.000000 93.000000 -0.257591 0.750648 0.608420
-16140.00000000 6020.00000000 -20.00000000 88 214 104 0.000000 0.000000 0.000000 0.000000 -60.708740 0.000000 93.000000 0.608677 -0.615422 -0.500768
-16200.00000000 6210.00000000 -280.00000000 88 214 104 0.000000 0.000000 0.000000 0.000000 -60.708740 0.000000 93.000000 0.875580 -0.045218 -0.480952
-16210.00000000 6210.00000000 -290.00000000 88 214 104 0.000000 0.000000 0.000000 0.000000 -60.708740 0.000000 93.000000 0.919414 -0.051892 -0.389853
-16220.00000000 6230.00000000 -310.00000000 88 214 104 0.000000 0.000000 0.000000 0.000000 -60.708740 0.000000 93.000000 0.945268 -0.047585 -0.322806
-16240.00000000 6150.00000000 -80.00000000 88 214 104 0.000000 0.000000 0.000000 0.000000 -60.708740 0.000000 93.000000 0.765117 -0.347780 -0.541890
-16250.00000000 6170.00000000 -170.00000000 88 214 104 0.000000 0.000000 0.000000 0.000000 -60.708740 0.000000 93.000000 0.741950 -0.429377 -0.514923
-16250.00000000 6190.00000000 -170.00000000 88 214 104 0.000000 0.000000 0.000000 0.000000 -60.708740 0.000000 93.000000 -0.469608 0.079429 0.879295
-16210.00000000 6060.00000000 -60.00000000 88 214 104 0.000000 0.000000 0.000000 0.000000 -60.708740 0.000000 93.000000 -0.308480 0.302576 0.901825
-16190.00000000 6100.00000000 -90.00000000 88 214 104 0.000000 0.000000 0.000000 0.000000 -60.708740 0.000000 93.000000 0.867366 -0.207511 -0.452344
-16250.00000000 6110.00000000 -110.00000000 88 214 104 0.000000 0.000000 0.000000 0.000000 -60.708740 0.000000 93.000000 -0.625166 0.035122 0.779701
-16300.00000000 6190.00000000 -90.00000000 88 214 104 0.000000 0.000000 0.000000 0.000000 -60.708740 0.000000 93.000000 0.815613 -0.429354 -0.387855
-16210.00000000 6140.00000000 -220.00000000 88 214 104 0.000000 0.000000 0.000000 0.000000 -60.708740 0.000000 93.000000 0.898131 -0.134791 -0.418560
-16200.00000000 6140.00000000 -200.00000000 88 214 104 0.000000 0.000000 0.000000 0.000000 -60.708740 0.000000 93.000000 -0.571352 0.023518 0.820368
-16190.00000000 6120.00000000 -240.00000000 88 214 104 0.000000 0.000000 0.000000 0.000000 -60.708740 0.000000 93.000000 0.830691 -0.301927 -0.467753
-16180.00000000 6140.00000000 -350.00000000 88 214 104 0.000000 0.000000 0.000000 0.000000 -60.708740 0.000000 93.000000 -0.442235 0.679206 0.585753
-16210.00000000 6170.00000000 -290.00000000 88 214 104 0.000000 0.000000 0.000000 0.000000 -60.708740 0.000000 93.000000 0.872345 -0.168604 -0.458897
-16190.00000000 6040.00000000 -240.00000000 88 214 104 0.000000 0.000000 0.000000 0.000000 -60.708740 0.000000 93.000000 0.789877 -0.122542 -0.600897
-16210.00000000 6080.00000000 -280.00000000 88 214 104 0.000000 0.000000 0.000000 0.000000 -60.708740 0.000000 93.000000 0.803485 -0.491638 -0.335714
-16190.00000000 6220.00000000 -420.00000000 88 214 104 0.000000 0.000000 0.000000 0.000000 -60.708740 0.000000 93.000000 0.519414 -0.529500 -0.670700
-16180.00000000 6230.00000000 -420.00000000 88 214 104 0.000000 0.000000 0.000000 0.000000 -60.708740 0.000000 93.000000 0.835841 0.145940 -0.529218
-16260.00000000 6200.00000000 -370.00000000 88 214 104 0.000000 0.000000 0.000000 0.000000 -60.708740 0.000000 93.000000 0.768976 -0.336931 -0.543281
-16250.00000000 6220.00000000 -450.00000000 88 214 104 0.000000 0.000000 0.000000 0.000000 -60.708740 0.000000 93.000000 0.676043 -0.602958 -0.423565
-16240.00000000 6170.00000000 -410.00000000 88 214 104 0.000000 0.000000 0.000000 0.000000 -60.708740 0.000000 93.000000 0.632710 -0.652638 -0.416825
-16510.00000000 6350.00000000 -420.00000000 88 214 104 0.000000 0.000000 0.000000 0.000000 -60.708740 0.000000 89.000000 0.769551 -0.232582 -0.594724
-16790.00000000 6800.00000000 -20.00000000 88 214 104 0.000000 0.000000 0.000000 0.000000 -60.708740 0.000000 89.000000 -0.335198 0.811783 0.478174
-16750.00000000 6790.00000000 -350.00000000 88 214 104 0.000000 0.000000 0.000000 0.000000 -60.708740 0.000000 89.000000 -0.206743 0.846591 0.490449
-16750.00000000 6720.00000000 -200.00000000 88 214 104 0.000000 0.000000 0.000000 0.000000 -60.708740 0.000000 89.000000 -0.388216 0.555297 0.735482
-16760.00000000 6740.00000000 -350.00000000 88 214 104 0.000000 0.000000 0.000000 0.000000 -60.708740 0.000000 89.000000 -0.242154 0.573357 0.782703
-16730.00000000 6770.00000000 -300.00000000 88 214 104 0.000000 0.000000 0.000000 0.000000 -60.708740 0.000000 89.000000 0.181572 0.893334 0.411079
-16770.00000000 6790.00000000 -310.00000000 88 214 104 0.000000 0.000000 0.000000 0.000000 -60.708740 0.000000 89.000000 0.120527 0.518412 0.846594
-16790.00000000 6850.00000000 -310.00000000 88 214 104 0.000000 0.000000 0.000000 0.000000 -60.708740 0.000000 89.000000 0.029480 0.633115 0.773496
-16780.00000000 6770.00000000 -270.00000000 88 214 104 0.000000 0.000000 0.000000 0.000000 -60.708740 0.000000 89.000000 0.434399 -0.490133 -0.755690
-16640.00000000 6650.00000000 -90.00000000 88 214 104 0.000000 0.000000 0.000000 0.000000 -60.708740 0.000000 89.000000 0.273574 -0.776445 -0.567706
-16630.00000000 6580.00000000 -20.00000000 88 214 104 0.000000 0.000000 0.000000 0.000000 -60.708740 0.000000 89.000000 0.035313 0.682245 0.730270
-16680.00000000 6700.00000000 -220.00000000 88 214 104 0.000000 0.000000 0.000000 0.000000 -60.708740 0.000000 89.000000 0.369585 0.655397 0.658682
-16650.00000000 6650.00000000 -280.00000000 88 214 104 0.000000 0.000000 0.000000 0.000000 -60.708740 0.000000 89.000000 0.289739 0.783720 0.549395
-16530.00000000 6520.00000000 -310.00000000 88 214 104 0.000000 0.000000 0.000000 0.000000 -60.708740 0.000000 89.000000 0.778415 0.482650 -0.401396
-16570.00000000 6500.00000000 -280.00000000 88 214 104 0.000000 0.000000 0.000000 0.000000 -60.708740 0.000000 89.000000 0.771946 0.565032 -0.291270
-16520.00000000 6510.00000000 -300.00000000 88 214 104 0.000000 0.000000 0.000000 0.000000 -60.708740 0.000000 89.000000 0.793931 0.251125 -0.553724
-16720.00000000 6650.00000000 -90.00000000 88 214 104 0.000000 0.000000 0.000000 0.000000 -60.708740 0.000000 89.000000 -0.119635 0.857627 0.500163
-16840.00000000 6640.00000000 -100.00000000 88 214 104 0.000000 0.000000 0.000000 0.000000 -60.708740 0.000000 89.000000 0.789415 -0.364964 -0.493585
-16810.00000000 6560.00000000 -40.00000000 88 214 104 0.000000 0.000000 0.000000 0.000000 -60.708740 0.000000 89.000000 -0.534980 0.142956 0.832682
-16800.00000000 6540.00000000 -140.00000000 88 214 104 0.000000 0.000000 0.000000 0.000000 -60.708740 0.000000 89.000000 0.851947 -0.232349 -0.469254
-16760.00000000 6640.00000000 -200.00000000 88 214 104 0.000000 0.000000 0.000000 0.000000 -60.708740 0.000000 89.000000 0.577112 -0.556803 -0.597421
-16830.00000000 6610.00000000 -270.00000000 88 214 104 0.000000 0.000000 0.000000 0.000000 -60.708740 0.000000 89.000000 0.766108 -0.410006 -0.494948
-16800.00000000 6610.00000000 -250.00000000 88 214 104 0.000000 0.000000 0.000000 0.000000 -60.708740 0.000000 89.000000 -0.460496 0.584411 0.668137
-16820.00000000 6550.00000000 -300.00000000 88 214 104 0.000000 0.000000 0.000000 0.000000 -60.708740 0.000000 89.000000 0.935015 -0.132404 -0.328962
-16800.00000000 6480.00000000 -190.00000000 88 214 104 0.000000 0.000000 0.000000 0.000000 -60.708740 0.000000 89.000000 0.821016 -0.043359 -0.569256
-16800.00000000 6500.00000000 -200.00000000 88 214 104 0.000000 0.000000 0.000000 0.000000 -60.708740 0.000000 89.000000 0.866282 0.074173 -0.494019
-16820.00000000 6520.00000000 -290.00000000 88 214 104 0.000000 0.000000 0.000000 0.000000 -60.708740 0.000000 89.000000 0.882653 -0.198928 -0.425854
-16790.00000000 6410.00000000 -200.00000000 88 214 104 0.000000 0.000000 0.000000 0.000000 -60.708740 0.000000 89.000000 -0.729298 -0.247300 0.637939
-16570.00000000 6570.00000000 -430.00000000 88 214 104 0.000000 0.000000 0.000000 0.000000 -60.708740 0.000000 89.000000 0.934302 0.299367 -0.193544
-16590.00000000 6580.00000000 -380.00000000 88 214 104 0.000000 0.000000 0.000000 0.000000 -60.708740 0.000000 89.000000 0.866223 0.480268 -0.137841
-16530.00000000 6540.00000000 -460.00000000 88 214 104 0.000000 0.000000 0.000000 0.000000 -60.708740 0.000000 89.000000 0.927987 -0.171643 -0.330726
-16520.00000000 6580.00000000 -450.00000000 88 214 104 0.000000 0.000000 0.000000 0.000000 -60.708740 0.000000 89.000000 0.728385 0.482825 -0.486143
-16560.00000000 6660.00000000 -580.00000000 88 214 104 0.000000 0.000000 0.000000 0.000000 -60.708740 0.000000 89.000000 0.751476 0.202142 -0.628030
-16540.00000000 6660.00000000 -630.00000000 88 214 104 0.000000 0.000000 0.000000 0.000000 -60.708740 0.000000 89.000000 0.803977 0.213677 -0.554944
-16520.00000000 6580.00000000 -650.00000000 88 214 104 0.000000 0.000000 0.000000 0.000000 -60.708740 0.000000 89.000000 0.768122 0.232151 -0.596736
-16530.00000000 6570.00000000 -610.00000000 88 214 104 0.000000 0.000000 0.000000 0.000000 -60.708740 0.000000 89.000000 0.954859 0.175437 -0.239719
-16620.00000000 6700.00000000 -560.00000000 88 214 104 0.000000 0.000000 0.000000 0.000000 -60.708740 0.000000 89.000000 0.668685 0.715229 -0.203243
-16530.00000000 6470.00000000 -510.00000000 88 214 104 0.000000 0.000000 0.000000 0.000000 -60.708740 0.000000 89.000000 0.912653 -0.043967 -0.406364
-16530.00000000 6470.00000000 -510.00000000 88 214 104 0.000000 0.000000 0.000000 0.000000 -60.708740 0.000000 89.000000 0.912653 -0.043967 -0.406364
-16580.00000000 6410.00000000 -440.00000000 88 214 104 0.000000 0.000000 0.000000 0.000000 -60.708740 0.000000 89.000000 -0.509507 0.725259 0.463037
-16550.00000000 6390.00000000 -450.00000000 88 214 104 0.000000 0.000000 0.000000 0.000000 -60.708740 0.000000 89.000000 0.593011 -0.426901 -0.682710
-16520.00000000 6410.00000000 -520.00000000 88 214 104 0.000000 0.000000 0.000000 0.000000 -60.708740 0.000000 89.000000 0.718099 0.018197 -0.695703
-16660.00000000 6420.00000000 -390.00000000 88 214 104 0.000000 0.000000 0.000000 0.000000 -60.708740 0.000000 89.000000 -0.290105 0.655540 0.697213
-16530.00000000 6530.00000000 -610.00000000 88 214 104 0.000000 0.000000 0.000000 0.000000 -60.708740 0.000000 89.000000 0.952233 -0.145573 -0.268442
-16540.00000000 6380.00000000 -560.00000000 88 214 104 0.000000 0.000000 0.000000 0.000000 -60.708740 0.000000 89.000000 -0.412350 0.490583 0.767656
-16540.00000000 6440.00000000 -620.00000000 88 214 104 0.000000 0.000000 0.000000 0.000000 -60.708740 0.000000 89.000000 0.467073 -0.453962 -0.758789
-16690.00000000 6690.00000000 -470.00000000 88 214 104 0.000000 0.000000 0.000000 0.000000 -60.708740 0.000000 89.000000 0.625480 0.778659 0.049641
-16810.00000000 6560.00000000 -480.00000000 88 214 104 0.000000 0.000000 0.000000 0.000000 -60.708740 0.000000 89.000000 0.802086 0.563752 -0.197084
-16710.00000000 6680.00000000 -600.00000000 88 214 104 0.000000 0.000000 0.000000 0.000000 -60.708740 0.000000 89.000000 0.705256 0.613621 -0.355082
-16730.00000000 6400.00000000 -420.00000000 88 214 104 0.000000 0.000000 0.000000 0.000000 -60.708740 0.000000 89.000000 0.202868 0.676744 0.707716
-16710.00000000 6370.00000000 -400.00000000 88 214 104 0.000000 0.000000 0.000000 0.000000 -60.708740 0.000000 89.000000 0.078771 0.894122 0.440842
-16730.00000000 6400.00000000 -470.00000000 88 214 104 0.000000 0.000000 0.000000 0.000000 -60.708740 0.000000 89.000000 -0.048190 0.983781 0.172779
-16740.00000000 6390.00000000 -500.00000000 88 214 104 0.000000 0.000000 0.000000 0.000000 -60.708740 0.000000 89.000000 -0.032408 0.672109 0.739743
-16800.00000000 6460.00000000 -370.00000000 88 214 104 0.000000 0.000000 0.000000 0.000000 -60.708740 0.000000 89.000000 0.712021 0.566643 -0.414657
-16750.00000000 6460.00000000 -640.00000000 88 214 104 0.000000 0.000000 0.000000 0.000000 -60.708740 0.000000 89.000000 -0.152067 0.627839 0.763344
-16760.00000000 6420.00000000 -560.00000000 88 214 104 0.000000 0.000000 0.000000 0.000000 -60.708740 0.000000 89.000000 -0.276970 0.815263 0.508561
-16800.00000000 6420.00000000 -540.00000000 88 214 104 0.000000 0.000000 0.000000 0.000000 -60.708740 0.000000 89.000000 0.441606 0.571588 0.691572
-16810.00000000 6370.00000000 -530.00000000 88 214 104 0.000000 0.000000 0.000000 0.000000 -60.708740 0.000000 89.000000 0.066770 0.900720 0.429239
-16780.00000000 6450.00000000 -670.00000000 88 214 104 0.000000 0.000000 0.000000 0.000000 -60.708740 0.000000 89.000000 0.311575 0.650593 0.692567
-16890.00000000 6750.00000000 -110.00000000 88 214 104 0.000000 0.000000 0.000000 0.000000 -60.708740 0.000000 89.000000 -0.663437 0.525710 0.532429
-16540.00000000 6640.00000000 -740.00000000 88 214 104 0.000000 0.000000 0.000000 0.000000 -60.708740 0.000000 89.000000 0.982208 -0.036378 -0.184237
-16530.00000000 6650.00000000 -710.00000000 88 214 104 0.000000 0.000000 0.000000 0.000000 -60.708740 0.000000 89.000000 0.950907 -0.090004 -0.296099
-16620.00000000 6700.00000000 -700.00000000 88 214 104 0.000000 0.000000 0.000000 0.000000 -60.708740 0.000000 89.000000 0.829527 0.087394 -0.551586
-16550.00000000 6680.00000000 -900.00000000 88 214 104 0.000000 0.000000 0.000000 0.000000 -60.708740 0.000000 89.000000 0.679135 0.262429 -0.685497
-16530.00000000 6460.00000000 -790.00000000 88 214 104 0.000000 0.000000 0.000000 0.000000 -60.708740 0.000000 89.000000 -0.503001 0.725450 0.469800
-16560.00000000 6420.00000000 -740.00000000 88 214 104 0.000000 0.000000 0.000000 0.000000 -60.708740 0.000000 89.000000 -0.176237 0.675831 0.715676
-16560.00000000 6400.00000000 -800.00000000 88 214 104 0.000000 0.000000 0.000000 0.000000 -60.708740 0.000000 89.000000 -0.273704 0.808600 0.520819
-16560.00000000 6420.00000000 -820.00000000 88 214 104 0.000000 0.000000 0.000000 0.000000 -60.708740 0.000000 89.000000 -0.470594 0.710048 0.523806
-16560.00000000 6420.00000000 -820.00000000 88 214 104 0.000000 0.000000 0.000000 0.000000 -60.708740 0.000000 89.000000 -0.470594 0.710048 0.523806
-16680.00000000 6470.00000000 -840.00000000 88 214 104 0.000000 0.000000 0.000000 0.000000 -60.708740 0.000000 89.000000 -0.289298 0.788851 0.542236
-16660.00000000 6440.00000000 -810.00000000 88 214 104 0.000000 0.000000 0.000000 0.000000 -60.708740 0.000000 89.000000 -0.155846 0.733836 0.661209
-16770.00000000 6670.00000000 -850.00000000 88 214 104 0.000000 0.000000 0.000000 0.000000 -60.708740 0.000000 89.000000 0.449602 -0.673568 -0.586656
-16740.00000000 6690.00000000 -910.00000000 88 214 104 0.000000 0.000000 0.000000 0.000000 -60.708740 0.000000 89.000000 0.920444 -0.197746 -0.337164
-16760.00000000 6680.00000000 -900.00000000 88 214 104 0.000000 0.000000 0.000000 0.000000 -60.708740 0.000000 89.000000 0.741733 -0.518062 -0.425962
-16790.00000000 6530.00000000 -720.00000000 88 214 104 0.000000 0.000000 0.000000 0.000000 -60.708740 0.000000 89.000000 0.118482 0.877910 0.463936
-16740.00000000 6520.00000000 -910.00000000 88 214 104 0.000000 0.000000 0.000000 0.000000 -60.708740 0.000000 89.000000 -0.292900 0.383957 0.875664
-16740.00000000 6680.00000000 -1040.00000000 88 214 104 0.000000 0.000000 0.000000 0.000000 -60.708740 0.000000 89.000000 -0.575853 0.552211 0.602873
-16880.00000000 6560.00000000 -770.00000000 88 214 104 0.000000 0.000000 0.000000 0.000000 -60.708740 0.000000 89.000000 0.356688 0.779549 0.514857
-16620.00000000 6280.00000000 -260.00000000 88 214 104 0.000000 0.000000 0.000000 0.000000 -60.708740 0.000000 89.000000 -0.114343 0.846718 0.519610
-16660.00000000 6360.00000000 -290.00000000 88 214 104 0.000000 0.000000 0.000000 0.000000 -60.708740 0.000000 89.000000 0.346928 0.728060 0.591244
-16750.00000000 6310.00000000 -200.00000000 88 214 104 0.000000 0.000000 0.000000 0.000000 -60.708740 0.000000 89.000000 0.700294 0.509761 -0.499732
-16520.00000000 6310.00000000 -480.00000000 88 214 104 0.000000 0.000000 0.000000 0.000000 -60.708740 0.000000 89.000000 -0.288366 0.348131 0.891992
-16570.00000000 6300.00000000 -560.00000000 88 214 104 0.000000 0.000000 0.000000 0.000000 -60.708740 0.000000 89.000000 0.669303 -0.410218 -0.619479
-16520.00000000 6300.00000000 -660.00000000 88 214 104 0.000000 0.000000 0.000000 0.000000 -60.708740 0.000000 89.000000 -0.346403 0.453962 0.820928
-16570.00000000 6310.00000000 -680.00000000 88 214 104 0.000000 0.000000 0.000000 0.000000 -60.708740 0.000000 89.000000 -0.184074 0.401483 0.897178
-16520.00000000 6300.00000000 -660.00000000 88 214 104 0.000000 0.000000 0.000000 0.000000 -60.708740 0.000000 89.000000 -0.346403 0.453962 0.820928
-16530.00000000 6250.00000000 -560.00000000 88 214 104 0.000000 0.000000 0.000000 0.000000 -60.708740 0.000000 89.000000 -0.104611 0.752902 0.649765
-16570.00000000 6210.00000000 -620.00000000 88 214 104 0.000000 0.000000 0.000000 0.000000 -60.708740 0.000000 89.000000 0.079779 0.747024 0.659992
-16590.00000000 6280.00000000 -670.00000000 88 214 104 0.000000 0.000000 0.000000 0.000000 -60.708740 0.000000 89.000000 0.429674 -0.555756 -0.711699
-16540.00000000 6270.00000000 -640.00000000 88 214 104 0.000000 0.000000 0.000000 0.000000 -60.708740 0.000000 89.000000 -0.012520 0.655197 0.755354
-16610.00000000 6360.00000000 -630.00000000 88 214 104 0.000000 0.000000 0.000000 0.000000 -60.708740 0.000000 89.000000 -0.334574 0.830937 0.444528
-16600.00000000 6360.00000000 -680.00000000 88 214 104 0.000000 0.000000 0.000000 0.000000 -60.708740 0.000000 89.000000 -0.481001 0.753514 0.448168
-16600.00000000 6260.00000000 -600.00000000 88 214 104 0.000000 0.000000 0.000000 0.000000 -60.708740 0.000000 89.000000 -0.163871 0.851834 0.497518
-16910.00000000 6300.00000000 -50.00000000 88 214 104 0.000000 0.000000 0.000000 0.000000 -60.708740 0.000000 89.000000 0.872534 -0.146632 -0.466029
-16500.00000000 6430.00000000 180.00000000 88 214 104 0.000000 0.000000 0.000000 0.000000 -60.708740 0.000000 89.000000 -0.513795 0.621608 0.591285
-16170.00000000 6070.00000000 20.00000000 88 214 104 0.000000 0.000000 0.000000 0.000000 -60.708740 0.000000 93.000000 0.681541 -0.520785 -0.514086
-16130.00000000 5910.00000000 -10.00000000 88 214 104 0.000000 0.000000 0.000000 0.000000 -60.708740 0.000000 93.000000 -0.559945 0.751462 0.348951
-16110.00000000 6020.00000000 20.00000000 88 214 104 0.000000 0.000000 0.000000 0.000000 -60.708740 0.000000 93.000000 -0.389739 0.139293 0.910330
-16200.00000000 6190.00000000 70.00000000 88 214 104 0.000000 0.000000 0.000000 0.000000 -60.708740 0.000000 93.000000 0.975386 0.029847 -0.218477
-16730.00000000 6790.00000000 10.00000000 88 214 104 0.000000 0.000000 0.000000 0.000000 -60.708740 0.000000 89.000000 -0.369641 0.552018 0.747423
-16690.00000000 6750.00000000 0.00000000 88 214 104 0.000000 0.000000 0.000000 0.000000 -60.708740 0.000000 89.000000 -0.070730 0.645230 0.760707
-16560.00000000 6580.00000000 160.00000000 88 214 104 0.000000 0.000000 0.000000 0.000000 -60.708740 0.000000 89.000000 0.006921 0.746092 0.665807
-16590.00000000 6630.00000000 120.00000000 88 214 104 0.000000 0.000000 0.000000 0.000000 -60.708740 0.000000 89.000000 -0.363815 0.777756 0.512575
-16590.00000000 6630.00000000 40.00000000 88 214 104 0.000000 0.000000 0.000000 0.000000 -60.708740 0.000000 89.000000 -0.174742 0.512279 0.840854
-16630.00000000 6380.00000000 230.00000000 88 214 104 0.000000 0.000000 0.000000 0.000000 -60.708740 0.000000 89.000000 -0.306967 0.453439 0.836758
-16600.00000000 6520.00000000 0.00000000 88 214 104 0.000000 0.000000 0.000000 0.000000 -60.708740 0.000000 89.000000 -0.387561 0.674522 0.628344
-16600.00000000 6370.00000000 90.00000000 88 214 104 0.000000 0.000000 0.000000 0.000000 -60.708740 0.000000 89.000000 0.559127 -0.455647 -0.692650
-16740.00000000 6660.00000000 80.00000000 88 214 104 0.000000 0.000000 0.000000 0.000000 -60.708740 0.000000 89.000000 0.474083 -0.561194 -0.678459
-16770.00000000 6630.00000000 70.00000000 88 214 104 0.000000 0.000000 0.000000 0.000000 -60.708740 0.000000 89.000000 0.672241 -0.501247 -0.544834
-16800.00000000 6660.00000000 -10.00000000 88 214 104 0.000000 0.000000 0.000000 0.000000 -60.708740 0.000000 89.000000 -0.360475 0.420292 0.832714
-16790.00000000 6550.00000000 60.00000000 88 214 104 0.000000 0.000000 0.000000 0.000000 -60.708740 0.000000 89.000000 -0.397963 0.582909 0.708408
-16830.00000000 6520.00000000 120.00000000 88 214 104 0.000000 0.000000 0.000000 0.000000 -60.708740 0.000000 89.000000 0.631823 -0.571168 -0.523992
-16800.00000000 6470.00000000 60.00000000 88 214 104 0.000000 0.000000 0.000000 0.000000 -60.708740 0.000000 89.000000 0.822468 0.006820 -0.568771
-16790.00000000 6430.00000000 20.00000000 88 214 104 0.000000 0.000000 0.000000 0.000000 -60.708740 0.000000 89.000000 0.860084 0.192289 -0.472525
-16770.00000000 6370.00000000 20.00000000 88 214 104 0.000000 0.000000 0.000000 0.000000 -60.708740 0.000000 89.000000 -0.556711 0.115434 0.822647
-16860.00000000 6490.00000000 170.00000000 88 214 104 0.000000 0.000000 0.000000 0.000000 -60.708740 0.000000 89.000000 0.657654 -0.566827 -0.496184
-16600.00000000 6350.00000000 110.00000000 88 214 104 0.000000 0.000000 0.000000 0.000000 -60.708740 0.000000 89.000000 -0.490102 0.386582 0.781252
-16510.00000000 6550.00000000 -520.00000000 88 214 104 0.000000 0.000000 0.000000 0.000000 -60.708740 0.000000 89.000000 0.809548 -0.037751 -0.585839
-16500.00000000 6480.00000000 -370.00000000 88 214 104 0.000000 0.000000 0.000000 0.000000 -60.708740 0.000000 89.000000 0.905239 -0.289971 -0.310578
-16440.00000000 6420.00000000 -370.00000000 88 214 104 0.000000 0.000000 0.000000 0.000000 -60.708740 0.000000 89.000000 0.895990 -0.174581 -0.408318
-16470.00000000 6440.00000000 -480.00000000 88 214 104 0.000000 0.000000 0.000000 0.000000 -60.708740 0.000000 89.000000 0.651480 -0.453859 -0.607936
-16450.00000000 6500.00000000 -610.00000000 88 214 104 0.000000 0.000000 0.000000 0.000000 -60.708740 0.000000 89.000000 0.847307 0.004054 -0.531087
-16510.00000000 6660.00000000 -940.00000000 88 214 104 0.000000 0.000000 0.000000 0.000000 -60.708740 0.000000 89.000000 0.851189 -0.258260 -0.456922
-16500.00000000 6410.00000000 -770.00000000 88 214 104 0.000000 0.000000 0.000000 0.000000 -60.708740 0.000000 89.000000 -0.596900 0.364682 0.714645
-15980.00000000 6060.00000000 -140.00000000 88 214 104 0.000000 0.000000 0.000000 0.000000 -60.708740 0.000000 93.000000 0.862474 -0.327463 -0.385884
-16150.00000000 6120.00000000 -120.00000000 88 214 104 0.000000 0.000000 0.000000 0.000000 -60.708740 0.000000 93.000000 0.856616 -0.419849 -0.299892
-16140.00000000 6160.00000000 -140.00000000 88 214 104 0.000000 0.000000 0.000000 0.000000 -60.708740 0.000000 93.000000 0.796406 -0.485535 -0.360546
-16210.00000000 6210.00000000 -350.00000000 88 214 104 0.000000 0.000000 0.000000 0.000000 -60.708740 0.000000 93.000000 0.523811 -0.507076 -0.684468
-16290.00000000 6180.00000000 -80.00000000 88 214 104 0.000000 0.000000 0.000000 0.000000 -60.708740 0.000000 93.000000 -0.509208 0.164787 0.844720
-16220.00000000 6130.00000000 -340.00000000 88 214 104 0.000000 0.000000 0.000000 0.000000 -60.708740 0.000000 93.000000 0.860270 -0.338239 -0.381484
-16320.00000000 6140.00000000 -200.00000000 88 214 104 0.000000 0.000000 0.000000 0.000000 -60.708740 0.000000 93.000000 -0.372965 0.329989 0.867182
-16500.00000000 6340.00000000 -270.00000000 88 214 104 0.000000 0.000000 0.000000 0.000000 -60.708740 0.000000 89.000000 -0.238316 0.352356 0.905014
-16260.00000000 6210.00000000 -370.00000000 88 214 104 0.000000 0.000000 0.000000 0.000000 -60.708740 0.000000 93.000000 0.688152 -0.372818 -0.622458
-16430.00000000 6150.00000000 -530.00000000 88 214 104 0.000000 0.000000 0.000000 0.000000 -60.708740 0.000000 89.000000 0.694461 -0.336659 -0.635912
-16500.00000000 6290.00000000 -750.00000000 88 214 104 0.000000 0.000000 0.000000 0.000000 -60.708740 0.000000 89.000000 -0.092087 0.741080 0.665072
-16760.00000000 6770.00000000 -70.00000000 88 214 104 0.000000 0.000000 0.000000 0.000000 -60.708740 0.000000 89.000000 0.006784 0.842523 0.538618
-16760.00000000 6790.00000000 -250.00000000 88 214 104 0.000000 0.000000 0.000000 0.000000 -60.708740 0.000000 89.000000 0.294015 0.809721 0.507845
-16760.00000000 6780.00000000 -190.00000000 88 214 104 0.000000 0.000000 0.000000 0.000000 -60.708740 0.000000 89.000000 0.131478 0.868335 0.478234
-16760.00000000 6750.00000000 -350.00000000 88 214 104 0.000000 0.000000 0.000000 0.000000 -60.708740 0.000000 89.000000 -0.142411 0.634102 0.760023
-16730.00000000 6710.00000000 -510.00000000 88 214 104 0.000000 0.000000 0.000000 0.000000 -60.708740 0.000000 89.000000 0.850662 0.487593 0.196537
-16670.00000000 6650.00000000 -80.00000000 88 214 104 0.000000 0.000000 0.000000 0.000000 -60.708740 0.000000 89.000000 -0.281918 0.594097 0.753373
-16670.00000000 6700.00000000 -260.00000000 88 214 104 0.000000 0.000000 0.000000 0.000000 -60.708740 0.000000 89.000000 0.339615 0.890181 0.303709
-16650.00000000 6680.00000000 -200.00000000 88 214 104 0.000000 0.000000 0.000000 0.000000 -60.708740 0.000000 89.000000 0.392010 0.844930 0.363898
-16680.00000000 6650.00000000 -240.00000000 88 214 104 0.000000 0.000000 0.000000 0.000000 -60.708740 0.000000 89.000000 -0.382855 0.783479 0.489472
-16610.00000000 6600.00000000 -280.00000000 88 214 104 0.000000 0.000000 0.000000 0.000000 -60.708740 0.000000 89.000000 0.100564 0.803058 0.587354
-16530.00000000 6420.00000000 -200.00000000 88 214 104 0.000000 0.000000 0.000000 0.000000 -60.708740 0.000000 89.000000 0.875021 0.472256 -0.106364
-16550.00000000 6430.00000000 -350.00000000 88 214 104 0.000000 0.000000 0.000000 0.000000 -60.708740 0.000000 89.000000 0.909581 -0.030452 -0.414409
-16780.00000000 6700.00000000 -50.00000000 88 214 104 0.000000 0.000000 0.000000 0.000000 -60.708740 0.000000 89.000000 -0.450224 0.437222 0.778547
-16800.00000000 6620.00000000 -130.00000000 88 214 104 0.000000 0.000000 0.000000 0.000000 -60.708740 0.000000 89.000000 0.432784 -0.511771 -0.742151
-16760.00000000 6640.00000000 -210.00000000 88 214 104 0.000000 0.000000 0.000000 0.000000 -60.708740 0.000000 89.000000 -0.246570 0.525707 0.814147
-16770.00000000 6680.00000000 -350.00000000 88 214 104 0.000000 0.000000 0.000000 0.000000 -60.708740 0.000000 89.000000 -0.032502 0.722107 0.691018
-16790.00000000 6610.00000000 -300.00000000 88 214 104 0.000000 0.000000 0.000000 0.000000 -60.708740 0.000000 89.000000 -0.442117 0.652331 0.615627
-16800.00000000 6430.00000000 -160.00000000 88 214 104 0.000000 0.000000 0.000000 0.000000 -60.708740 0.000000 89.000000 0.795674 -0.043656 -0.604149
-16680.00000000 6690.00000000 -430.00000000 88 214 104 0.000000 0.000000 0.000000 0.000000 -60.708740 0.000000 89.000000 0.316786 0.936644 0.149479
-16670.00000000 6670.00000000 -450.00000000 88 214 104 0.000000 0.000000 0.000000 0.000000 -60.708740 0.000000 89.000000 0.442587 0.871762 0.210117
-16540.00000000 6650.00000000 -530.00000000 88 214 104 0.000000 0.000000 0.000000 0.000000 -60.708740 0.000000 89.000000 0.677083 0.220482 -0.702102
-16520.00000000 6620.00000000 -660.00000000 88 214 104 0.000000 0.000000 0.000000 0.000000 -60.708740 0.000000 89.000000 0.825037 0.342319 -0.449590
-16530.00000000 6570.00000000 -610.00000000 88 214 104 0.000000 0.000000 0.000000 0.000000 -60.708740 0.000000 89.000000 0.954859 0.175437 -0.239719
-16530.00000000 6580.00000000 -660.00000000 88 214 104 0.000000 0.000000 0.000000 0.000000 -60.708740 0.000000 89.000000 0.902934 0.180011 -0.390263
