//X Y Z R G B PointSourceId ScanDirectionFlag NumberOfReturns ReturnNumber GpsTime Intensity Classification Nx Ny Nz
-700.00000000 17130.00000000 -1310.00000000 187 185 69 0.000000 0.000000 0.000000 0.000000 -60.708740 0.000000 38.000000 -0.121204 0.968356 -0.218167
-690.00000000 17130.00000000 -1320.00000000 187 185 69 0.000000 0.000000 0.000000 0.000000 -60.708740 0.000000 38.000000 -0.154665 0.978718 -0.134868
-330.00000000 17020.00000000 -1430.00000000 187 185 69 0.000000 0.000000 0.000000 0.000000 -60.708740 0.000000 38.000000 0.769528 -0.614099 0.175239
-830.00000000 17150.00000000 -1390.00000000 187 185 69 0.000000 0.000000 0.000000 0.000000 -60.708740 0.000000 38.000000 0.596374 0.646772 -0.475419
-810.00000000 17150.00000000 -1420.00000000 187 185 69 0.000000 0.000000 0.000000 0.000000 -60.708740 0.000000 38.000000 0.119293 0.902418 -0.414018
-860.00000000 17150.00000000 -1450.00000000 187 185 69 0.000000 0.000000 0.000000 0.000000 -60.708740 0.000000 38.000000 0.395105 0.692674 -0.603403
-560.00000000 17110.00000000 -1370.00000000 187 185 69 0.000000 0.000000 0.000000 0.000000 -60.708740 0.000000 38.000000 -0.436590 0.850038 -0.294659
-560.00000000 17110.00000000 -1370.00000000 187 185 69 0.000000 0.000000 0.000000 0.000000 -60.708740 0.000000 38.000000 -0.436590 0.850038 -0.294659
-830.00000000 17140.00000000 -1430.00000000 187 185 69 0.000000 0.000000 0.000000 0.000000 -60.708740 0.000000 38.000000 0.156645 0.967056 -0.200661
-860.00000000 17140.00000000 -1430.00000000 187 185 69 0.000000 0.000000 0.000000 0.000000 -60.708740 0.000000 38.000000 0.339557 0.930687 -0.136098
-860.00000000 17140.00000000 -1470.00000000 187 185 69 0.000000 0.000000 0.000000 0.000000 -60.708740 0.000000 38.000000 0.349755 0.936525 0.024342
-850.00000000 17140.00000000 -1390.00000000 187 185 69 0.000000 0.000000 0.000000 0.000000 -60.708740 0.000000 38.000000 0.546305 0.573366 -0.610576
-780.00000000 17140.00000000 -1390.00000000 187 185 69 0.000000 0.000000 0.000000 0.000000 -60.708740 0.000000 38.000000 0.026154 0.988152 -0.151236
-790.00000000 17140.00000000 -1380.00000000 187 185 69 0.000000 0.000000 0.000000 0.000000 -60.708740 0.000000 38.000000 0.062318 0.957663 -0.281067
-810.00000000 17140.00000000 -1370.00000000 187 185 69 0.000000 0.000000 0.000000 0.000000 -60.708740 0.000000 38.000000 0.077631 0.960847 -0.265983
-850.00000000 17140.00000000 -1420.00000000 187 185 69 0.000000 0.000000 0.000000 0.000000 -60.708740 0.000000 38.000000 0.278741 0.952475 -0.122857
-340.00000000 17850.00000000 400.00000000 187 185 69 0.000000 0.000000 0.000000 0.000000 -60.708740 0.000000 38.000000 0.225869 0.847387 -0.480540
-310.00000000 17840.00000000 290.00000000 187 185 69 0.000000 0.000000 0.000000 0.000000 -60.708740 0.000000 38.000000 0.284945 0.881974 -0.375404
-330.00000000 17840.00000000 200.00000000 187 185 69 0.000000 0.000000 0.000000 0.000000 -60.708740 0.000000 38.000000 0.192902 0.809583 -0.554405
-460.00000000 17870.00000000 590.00000000 187 185 69 0.000000 0.000000 0.000000 0.000000 -60.708740 0.000000 38.000000 -0.519181 0.790752 -0.324288
-380.00000000 17860.00000000 370.00000000 187 185 69 0.000000 0.000000 0.000000 0.000000 -60.708740 0.000000 38.000000 -0.214681 0.947603 -0.236559
-470.00000000 17870.00000000 470.00000000 187 185 69 0.000000 0.000000 0.000000 0.000000 -60.708740 0.000000 38.000000 -0.521646 0.781667 0.341879
-450.00000000 17870.00000000 450.00000000 187 185 69 0.000000 0.000000 0.000000 0.000000 -60.708740 0.000000 38.000000 -0.305489 0.895605 -0.323371
-450.00000000 17870.00000000 450.00000000 187 185 69 0.000000 0.000000 0.000000 0.000000 -60.708740 0.000000 38.000000 -0.305489 0.895605 -0.323371
-510.00000000 17850.00000000 450.00000000 187 185 69 0.000000 0.000000 0.000000 0.000000 -60.708740 0.000000 38.000000 -0.491722 0.866501 -0.085946
-550.00000000 17870.00000000 640.00000000 187 185 69 0.000000 0.000000 0.000000 0.000000 -60.708740 0.000000 38.000000 0.743109 -0.489365 -0.456411
-420.00000000 17860.00000000 240.00000000 187 185 69 0.000000 0.000000 0.000000 0.000000 -60.708740 0.000000 38.000000 -0.016858 0.919416 -0.392924
-510.00000000 17840.00000000 270.00000000 187 185 69 0.000000 0.000000 0.000000 0.000000 -60.708740 0.000000 38.000000 -0.485300 0.856325 -0.176608
-450.00000000 17860.00000000 300.00000000 187 185 69 0.000000 0.000000 0.000000 0.000000 -60.708740 0.000000 38.000000 -0.195240 0.928441 -0.316035
-480.00000000 17860.00000000 290.00000000 187 185 69 0.000000 0.000000 0.000000 0.000000 -60.708740 0.000000 38.000000 -0.211117 0.935348 -0.283820
-490.00000000 17860.00000000 220.00000000 187 185 69 0.000000 0.000000 0.000000 0.000000 -60.708740 0.000000 38.000000 -0.263773 0.925344 -0.272328
-390.00000000 17850.00000000 130.00000000 187 185 69 0.000000 0.000000 0.000000 0.000000 -60.708740 0.000000 38.000000 -0.092485 0.934230 -0.344472
-400.00000000 17860.00000000 80.00000000 187 185 69 0.000000 0.000000 0.000000 0.000000 -60.708740 0.000000 38.000000 -0.063117 0.949336 -0.307858
-400.00000000 17860.00000000 80.00000000 187 185 69 0.000000 0.000000 0.000000 0.000000 -60.708740 0.000000 38.000000 -0.063117 0.949336 -0.307858
-420.00000000 17860.00000000 10.00000000 187 185 69 0.000000 0.000000 0.000000 0.000000 -60.708740 0.000000 38.000000 0.089743 0.933593 -0.346916
-360.00000000 17860.00000000 60.00000000 187 185 69 0.000000 0.000000 0.000000 0.000000 -60.708740 0.000000 38.000000 -0.058267 0.943918 -0.324998
-470.00000000 17860.00000000 110.00000000 187 185 69 0.000000 0.000000 0.000000 0.000000 -60.708740 0.000000 38.000000 -0.222637 0.926001 -0.304885
-500.00000000 17860.00000000 140.00000000 187 185 69 0.000000 0.000000 0.000000 0.000000 -60.708740 0.000000 38.000000 -0.433339 0.852799 0.291463
-490.00000000 17860.00000000 130.00000000 187 185 69 0.000000 0.000000 0.000000 0.000000 -60.708740 0.000000 38.000000 -0.284494 0.803186 -0.523407
-480.00000000 17860.00000000 70.00000000 187 185 69 0.000000 0.000000 0.000000 0.000000 -60.708740 0.000000 38.000000 -0.040092 0.937633 -0.345308
-500.00000000 17860.00000000 10.00000000 187 185 69 0.000000 0.000000 0.000000 0.000000 -60.708740 0.000000 38.000000 -0.070674 0.879955 -0.469771
-160.00000000 17690.00000000 400.00000000 187 185 69 0.000000 0.000000 0.000000 0.000000 -60.708740 0.000000 38.000000 0.929839 -0.150598 -0.335737
-170.00000000 17670.00000000 390.00000000 187 185 69 0.000000 0.000000 0.000000 0.000000 -60.708740 0.000000 38.000000 0.982096 -0.144820 -0.120480
-120.00000000 17610.00000000 510.00000000 187 185 69 0.000000 0.000000 0.000000 0.000000 -60.708740 0.000000 38.000000 0.908629 -0.405218 0.100959
-140.00000000 17560.00000000 490.00000000 187 185 69 0.000000 0.000000 0.000000 0.000000 -60.708740 0.000000 38.000000 0.890887 -0.353669 0.285024
-110.00000000 17620.00000000 450.00000000 187 185 69 0.000000 0.000000 0.000000 0.000000 -60.708740 0.000000 38.000000 0.963414 -0.171710 0.205790
-150.00000000 17650.00000000 320.00000000 187 185 69 0.000000 0.000000 0.000000 0.000000 -60.708740 0.000000 38.000000 0.947427 -0.172136 0.269725
-220.00000000 17760.00000000 360.00000000 187 185 69 0.000000 0.000000 0.000000 0.000000 -60.708740 0.000000 38.000000 0.896525 0.286947 -0.337498
-230.00000000 17780.00000000 330.00000000 187 185 69 0.000000 0.000000 0.000000 0.000000 -60.708740 0.000000 38.000000 0.929523 0.320091 -0.183109
-170.00000000 17710.00000000 190.00000000 187 185 69 0.000000 0.000000 0.000000 0.000000 -60.708740 0.000000 38.000000 0.926702 -0.056845 -0.371474
-290.00000000 17820.00000000 260.00000000 187 185 69 0.000000 0.000000 0.000000 0.000000 -60.708740 0.000000 38.000000 0.889870 0.384768 -0.245123
-180.00000000 17720.00000000 110.00000000 187 185 69 0.000000 0.000000 0.000000 0.000000 -60.708740 0.000000 38.000000 0.787144 0.355744 -0.503836
-180.00000000 17730.00000000 110.00000000 187 185 69 0.000000 0.000000 0.000000 0.000000 -60.708740 0.000000 38.000000 0.788657 0.385458 -0.479000
-110.00000000 17470.00000000 500.00000000 187 185 69 0.000000 0.000000 0.000000 0.000000 -60.708740 0.000000 38.000000 0.769539 -0.638256 -0.020949
-70.00000000 17390.00000000 400.00000000 187 185 69 0.000000 0.000000 0.000000 0.000000 -60.708740 0.000000 38.000000 0.757531 -0.543411 0.361733
-100.00000000 17460.00000000 440.00000000 187 185 69 0.000000 0.000000 0.000000 0.000000 -60.708740 0.000000 38.000000 0.684412 -0.717359 -0.130293
-130.00000000 17340.00000000 440.00000000 187 185 69 0.000000 0.000000 0.000000 0.000000 -60.708740 0.000000 38.000000 -0.670932 0.674165 -0.308790
-210.00000000 17250.00000000 400.00000000 187 185 69 0.000000 0.000000 0.000000 0.000000 -60.708740 0.000000 38.000000 -0.264782 0.962503 0.058980
-220.00000000 17210.00000000 320.00000000 187 185 69 0.000000 0.000000 0.000000 0.000000 -60.708740 0.000000 38.000000 -0.576838 0.748111 -0.328006
-300.00000000 17190.00000000 410.00000000 187 185 69 0.000000 0.000000 0.000000 0.000000 -60.708740 0.000000 38.000000 -0.075433 0.995937 0.049196
-280.00000000 17220.00000000 420.00000000 187 185 69 0.000000 0.000000 0.000000 0.000000 -60.708740 0.000000 38.000000 -0.120950 0.992658 0.001090
-280.00000000 17200.00000000 370.00000000 187 185 69 0.000000 0.000000 0.000000 0.000000 -60.708740 0.000000 38.000000 -0.099775 0.828565 -0.550931
-320.00000000 17190.00000000 350.00000000 187 185 69 0.000000 0.000000 0.000000 0.000000 -60.708740 0.000000 38.000000 -0.159052 0.952974 -0.257958
-120.00000000 17340.00000000 150.00000000 187 185 69 0.000000 0.000000 0.000000 0.000000 -60.708740 0.000000 38.000000 -0.454926 0.833249 0.314227
-120.00000000 17360.00000000 180.00000000 187 185 69 0.000000 0.000000 0.000000 0.000000 -60.708740 0.000000 38.000000 -0.579191 0.766436 0.277694
-160.00000000 17250.00000000 10.00000000 187 185 69 0.000000 0.000000 0.000000 0.000000 -60.708740 0.000000 38.000000 -0.551743 0.741660 -0.381472
-190.00000000 17260.00000000 200.00000000 187 185 69 0.000000 0.000000 0.000000 0.000000 -60.708740 0.000000 38.000000 -0.506922 0.823167 -0.255786
-190.00000000 17270.00000000 220.00000000 187 185 69 0.000000 0.000000 0.000000 0.000000 -60.708740 0.000000 38.000000 -0.552852 0.705592 -0.443278
-220.00000000 17230.00000000 260.00000000 187 185 69 0.000000 0.000000 0.000000 0.000000 -60.708740 0.000000 38.000000 -0.425854 0.882653 -0.198928
-230.00000000 17220.00000000 260.00000000 187 185 69 0.000000 0.000000 0.000000 0.000000 -60.708740 0.000000 38.000000 -0.378405 0.891849 -0.247818
-210.00000000 17220.00000000 220.00000000 187 185 69 0.000000 0.000000 0.000000 0.000000 -60.708740 0.000000 38.000000 -0.374759 0.897952 -0.230734
-220.00000000 17200.00000000 150.00000000 187 185 69 0.000000 0.000000 0.000000 0.000000 -60.708740 0.000000 38.000000 -0.512178 0.812906 -0.277234
-270.00000000 17190.00000000 190.00000000 187 185 69 0.000000 0.000000 0.000000 0.000000 -60.708740 0.000000 38.000000 -0.498764 0.748968 -0.436212
-330.00000000 17160.00000000 170.00000000 187 185 69 0.000000 0.000000 0.000000 0.000000 -60.708740 0.000000 38.000000 0.417706 -0.798318 0.433833
-320.00000000 17190.00000000 10.00000000 187 185 69 0.000000 0.000000 0.000000 0.000000 -60.708740 0.000000 38.000000 -0.262784 0.846748 -0.462561
-330.00000000 17180.00000000 0.00000000 187 185 69 0.000000 0.000000 0.000000 0.000000 -60.708740 0.000000 38.000000 0.012047 0.993294 0.114990
-630.00000000 17780.00000000 160.00000000 187 185 69 0.000000 0.000000 0.000000 0.000000 -60.708740 0.000000 38.000000 -0.724921 0.539975 0.427687
-500.00000000 17220.00000000 520.00000000 187 185 69 0.000000 0.000000 0.000000 0.000000 -60.708740 0.000000 38.000000 0.120258 0.889908 -0.440002
-400.00000000 17200.00000000 420.00000000 187 185 69 0.000000 0.000000 0.000000 0.000000 -60.708740 0.000000 38.000000 0.085427 0.983015 -0.162432
-370.00000000 17190.00000000 330.00000000 187 185 69 0.000000 0.000000 0.000000 0.000000 -60.708740 0.000000 38.000000 -0.032463 0.928434 -0.370075
-420.00000000 17190.00000000 360.00000000 187 185 69 0.000000 0.000000 0.000000 0.000000 -60.708740 0.000000 38.000000 -0.256245 0.882620 -0.394107
-420.00000000 17190.00000000 340.00000000 187 185 69 0.000000 0.000000 0.000000 0.000000 -60.708740 0.000000 38.000000 0.074433 0.965107 -0.251054
-390.00000000 17180.00000000 320.00000000 187 185 69 0.000000 0.000000 0.000000 0.000000 -60.708740 0.000000 38.000000 0.168782 0.982764 0.075413
-460.00000000 17230.00000000 450.00000000 187 185 69 0.000000 0.000000 0.000000 0.000000 -60.708740 0.000000 38.000000 0.247944 0.833153 -0.494348
-500.00000000 17220.00000000 480.00000000 187 185 69 0.000000 0.000000 0.000000 0.000000 -60.708740 0.000000 38.000000 -0.039906 0.857295 -0.513276
-590.00000000 17260.00000000 420.00000000 187 185 69 0.000000 0.000000 0.000000 0.000000 -60.708740 0.000000 38.000000 0.285703 0.797126 -0.531944
-580.00000000 17260.00000000 410.00000000 187 185 69 0.000000 0.000000 0.000000 0.000000 -60.708740 0.000000 38.000000 -0.011707 0.914445 -0.404541
-590.00000000 17240.00000000 380.00000000 187 185 69 0.000000 0.000000 0.000000 0.000000 -60.708740 0.000000 38.000000 -0.019752 0.907281 -0.420062
-550.00000000 17230.00000000 480.00000000 187 185 69 0.000000 0.000000 0.000000 0.000000 -60.708740 0.000000 38.000000 0.284811 0.866618 -0.409702
-560.00000000 17230.00000000 480.00000000 187 185 69 0.000000 0.000000 0.000000 0.000000 -60.708740 0.000000 38.000000 0.089671 0.849739 -0.519522
-520.00000000 17220.00000000 330.00000000 187 185 69 0.000000 0.000000 0.000000 0.000000 -60.708740 0.000000 38.000000 0.167839 0.842167 -0.512430
-600.00000000 17260.00000000 410.00000000 187 185 69 0.000000 0.000000 0.000000 0.000000 -60.708740 0.000000 38.000000 0.111597 0.885711 -0.450625
-640.00000000 17270.00000000 420.00000000 187 185 69 0.000000 0.000000 0.000000 0.000000 -60.708740 0.000000 38.000000 0.483491 0.716098 -0.503429
-600.00000000 17250.00000000 320.00000000 187 185 69 0.000000 0.000000 0.000000 0.000000 -60.708740 0.000000 38.000000 0.136338 0.842950 -0.520430
-650.00000000 17280.00000000 370.00000000 187 185 69 0.000000 0.000000 0.000000 0.000000 -60.708740 0.000000 38.000000 0.370061 0.751533 -0.546125
-360.00000000 17200.00000000 280.00000000 187 185 69 0.000000 0.000000 0.000000 0.000000 -60.708740 0.000000 38.000000 -0.218577 0.896312 -0.385810
-380.00000000 17200.00000000 150.00000000 187 185 69 0.000000 0.000000 0.000000 0.000000 -60.708740 0.000000 38.000000 -0.248344 0.871463 -0.422938
-400.00000000 17190.00000000 190.00000000 187 185 69 0.000000 0.000000 0.000000 0.000000 -60.708740 0.000000 38.000000 -0.197271 0.838776 -0.507482
-470.00000000 17200.00000000 180.00000000 187 185 69 0.000000 0.000000 0.000000 0.000000 -60.708740 0.000000 38.000000 -0.088841 0.914376 -0.394999
-480.00000000 17200.00000000 230.00000000 187 185 69 0.000000 0.000000 0.000000 0.000000 -60.708740 0.000000 38.000000 -0.016734 0.928080 -0.372004
-490.00000000 17200.00000000 200.00000000 187 185 69 0.000000 0.000000 0.000000 0.000000 -60.708740 0.000000 38.000000 0.063717 0.822657 -0.564957
-480.00000000 17200.00000000 230.00000000 187 185 69 0.000000 0.000000 0.000000 0.000000 -60.708740 0.000000 38.000000 -0.016734 0.928080 -0.372004
-500.00000000 17220.00000000 180.00000000 187 185 69 0.000000 0.000000 0.000000 0.000000 -60.708740 0.000000 38.000000 0.242093 0.930148 -0.276071
-350.00000000 17170.00000000 130.00000000 187 185 69 0.000000 0.000000 0.000000 0.000000 -60.708740 0.000000 38.000000 -0.256600 0.894392 -0.366360
-400.00000000 17200.00000000 110.00000000 187 185 69 0.000000 0.000000 0.000000 0.000000 -60.708740 0.000000 38.000000 -0.192048 0.902483 -0.385541
-400.00000000 17190.00000000 100.00000000 187 185 69 0.000000 0.000000 0.000000 0.000000 -60.708740 0.000000 38.000000 -0.118056 0.883284 -0.453732
-410.00000000 17180.00000000 20.00000000 187 185 69 0.000000 0.000000 0.000000 0.000000 -60.708740 0.000000 38.000000 0.003613 0.964591 -0.263727
-410.00000000 17180.00000000 20.00000000 187 185 69 0.000000 0.000000 0.000000 0.000000 -60.708740 0.000000 38.000000 0.003613 0.964591 -0.263727
-450.00000000 17180.00000000 100.00000000 187 185 69 0.000000 0.000000 0.000000 0.000000 -60.708740 0.000000 38.000000 0.301050 0.950067 0.082105
-510.00000000 17210.00000000 140.00000000 187 185 69 0.000000 0.000000 0.000000 0.000000 -60.708740 0.000000 38.000000 -0.043741 0.915918 -0.398974
-440.00000000 17200.00000000 40.00000000 187 185 69 0.000000 0.000000 0.000000 0.000000 -60.708740 0.000000 38.000000 0.129175 0.936858 -0.324977
-480.00000000 17210.00000000 0.00000000 187 185 69 0.000000 0.000000 0.000000 0.000000 -60.708740 0.000000 38.000000 0.181070 0.946193 -0.268202
-490.00000000 17200.00000000 -10.00000000 187 185 69 0.000000 0.000000 0.000000 0.000000 -60.708740 0.000000 38.000000 -0.042896 0.853759 -0.518898
-570.00000000 17250.00000000 260.00000000 187 185 69 0.000000 0.000000 0.000000 0.000000 -60.708740 0.000000 38.000000 0.184972 0.834630 -0.518824
-550.00000000 17260.00000000 170.00000000 187 185 69 0.000000 0.000000 0.000000 0.000000 -60.708740 0.000000 38.000000 0.407086 0.881274 -0.240076
-520.00000000 17230.00000000 240.00000000 187 185 69 0.000000 0.000000 0.000000 0.000000 -60.708740 0.000000 38.000000 0.129420 0.917074 -0.377128
-520.00000000 17210.00000000 290.00000000 187 185 69 0.000000 0.000000 0.000000 0.000000 -60.708740 0.000000 38.000000 0.043364 0.826721 -0.560939
-560.00000000 17210.00000000 210.00000000 187 185 69 0.000000 0.000000 0.000000 0.000000 -60.708740 0.000000 38.000000 0.161559 0.934831 -0.316213
-670.00000000 17310.00000000 260.00000000 187 185 69 0.000000 0.000000 0.000000 0.000000 -60.708740 0.000000 38.000000 0.327393 0.793728 -0.512649
-620.00000000 17240.00000000 150.00000000 187 185 69 0.000000 0.000000 0.000000 0.000000 -60.708740 0.000000 38.000000 0.314719 0.851136 -0.420142
-610.00000000 17270.00000000 150.00000000 187 185 69 0.000000 0.000000 0.000000 0.000000 -60.708740 0.000000 38.000000 0.162546 0.941128 -0.296407
-600.00000000 17260.00000000 190.00000000 187 185 69 0.000000 0.000000 0.000000 0.000000 -60.708740 0.000000 38.000000 0.133527 0.831973 -0.538508
-610.00000000 17270.00000000 150.00000000 187 185 69 0.000000 0.000000 0.000000 0.000000 -60.708740 0.000000 38.000000 0.162546 0.941128 -0.296407
-550.00000000 17230.00000000 130.00000000 187 185 69 0.000000 0.000000 0.000000 0.000000 -60.708740 0.000000 38.000000 0.205920 0.878493 -0.431099
-540.00000000 17190.00000000 110.00000000 187 185 69 0.000000 0.000000 0.000000 0.000000 -60.708740 0.000000 38.000000 0.291408 0.833707 -0.469057
-530.00000000 17210.00000000 90.00000000 187 185 69 0.000000 0.000000 0.000000 0.000000 -60.708740 0.000000 38.000000 -0.043633 -0.798054 0.601004
-520.00000000 17190.00000000 10.00000000 187 185 69 0.000000 0.000000 0.000000 0.000000 -60.708740 0.000000 38.000000 0.105741 0.883991 -0.455389
-620.00000000 17240.00000000 70.00000000 187 185 69 0.000000 0.000000 0.000000 0.000000 -60.708740 0.000000 38.000000 0.400328 0.726522 -0.558483
-660.00000000 17260.00000000 80.00000000 187 185 69 0.000000 0.000000 0.000000 0.000000 -60.708740 0.000000 38.000000 0.323896 0.850809 -0.413781
-640.00000000 17260.00000000 80.00000000 187 185 69 0.000000 0.000000 0.000000 0.000000 -60.708740 0.000000 38.000000 0.274942 0.739005 -0.615043
-620.00000000 17270.00000000 0.00000000 187 185 69 0.000000 0.000000 0.000000 0.000000 -60.708740 0.000000 38.000000 0.148912 0.906235 -0.395680
-760.00000000 17540.00000000 370.00000000 187 185 69 0.000000 0.000000 0.000000 0.000000 -60.708740 0.000000 38.000000 0.686083 0.707476 -0.169611
-750.00000000 17530.00000000 360.00000000 187 185 69 0.000000 0.000000 0.000000 0.000000 -60.708740 0.000000 38.000000 0.637305 0.747873 -0.185817
-770.00000000 17510.00000000 380.00000000 187 185 69 0.000000 0.000000 0.000000 0.000000 -60.708740 0.000000 38.000000 0.744491 0.331064 -0.579766
-770.00000000 17520.00000000 330.00000000 187 185 69 0.000000 0.000000 0.000000 0.000000 -60.708740 0.000000 38.000000 0.825671 0.563772 -0.020676
-770.00000000 17520.00000000 330.00000000 187 185 69 0.000000 0.000000 0.000000 0.000000 -60.708740 0.000000 38.000000 0.825671 0.563772 -0.020676
-890.00000000 17760.00000000 350.00000000 187 185 69 0.000000 0.000000 0.000000 0.000000 -60.708740 0.000000 38.000000 0.998575 0.051022 0.015619
-730.00000000 17680.00000000 40.00000000 187 185 69 0.000000 0.000000 0.000000 0.000000 -60.708740 0.000000 38.000000 0.960736 0.159027 -0.227370
-760.00000000 17640.00000000 280.00000000 187 185 69 0.000000 0.000000 0.000000 0.000000 -60.708740 0.000000 38.000000 0.898395 0.434883 0.061347
-740.00000000 17580.00000000 170.00000000 187 185 69 0.000000 0.000000 0.000000 0.000000 -60.708740 0.000000 38.000000 0.843894 0.139426 -0.518077
-770.00000000 17520.00000000 310.00000000 187 185 69 0.000000 0.000000 0.000000 0.000000 -60.708740 0.000000 38.000000 0.852787 0.511672 -0.104628
-780.00000000 17500.00000000 250.00000000 187 185 69 0.000000 0.000000 0.000000 0.000000 -60.708740 0.000000 38.000000 0.770809 0.636512 -0.026580
-730.00000000 17610.00000000 100.00000000 187 185 69 0.000000 0.000000 0.000000 0.000000 -60.708740 0.000000 38.000000 0.925260 0.352678 -0.139688
-750.00000000 17580.00000000 10.00000000 187 185 69 0.000000 0.000000 0.000000 0.000000 -60.708740 0.000000 38.000000 0.839208 0.538173 -0.078099
-810.00000000 17530.00000000 30.00000000 187 185 69 0.000000 0.000000 0.000000 0.000000 -60.708740 0.000000 38.000000 0.817184 0.575774 0.026361
-890.00000000 17500.00000000 260.00000000 187 185 69 0.000000 0.000000 0.000000 0.000000 -60.708740 0.000000 38.000000 0.796274 0.461678 -0.390898
-760.00000000 17410.00000000 410.00000000 187 185 69 0.000000 0.000000 0.000000 0.000000 -60.708740 0.000000 38.000000 0.672877 0.423663 -0.606420
-750.00000000 17400.00000000 320.00000000 187 185 69 0.000000 0.000000 0.000000 0.000000 -60.708740 0.000000 38.000000 0.627623 0.745984 -0.222705
-750.00000000 17410.00000000 400.00000000 187 185 69 0.000000 0.000000 0.000000 0.000000 -60.708740 0.000000 38.000000 0.625380 0.645392 -0.438600
-710.00000000 17360.00000000 430.00000000 187 185 69 0.000000 0.000000 0.000000 0.000000 -60.708740 0.000000 38.000000 0.607791 0.721245 -0.332259
-690.00000000 17320.00000000 430.00000000 187 185 69 0.000000 0.000000 0.000000 0.000000 -60.708740 0.000000 38.000000 0.528666 0.572580 -0.626629
-720.00000000 17360.00000000 390.00000000 187 185 69 0.000000 0.000000 0.000000 0.000000 -60.708740 0.000000 38.000000 0.530213 0.800826 -0.278480
-690.00000000 17350.00000000 370.00000000 187 185 69 0.000000 0.000000 0.000000 0.000000 -60.708740 0.000000 38.000000 0.608906 0.612279 -0.504329
-750.00000000 17360.00000000 370.00000000 187 185 69 0.000000 0.000000 0.000000 0.000000 -60.708740 0.000000 38.000000 0.448369 0.886837 -0.111739
-770.00000000 17410.00000000 340.00000000 187 185 69 0.000000 0.000000 0.000000 0.000000 -60.708740 0.000000 38.000000 0.431562 0.870643 -0.236081
-750.00000000 17380.00000000 260.00000000 187 185 69 0.000000 0.000000 0.000000 0.000000 -60.708740 0.000000 38.000000 0.641546 0.527044 -0.557354
-750.00000000 17380.00000000 260.00000000 187 185 69 0.000000 0.000000 0.000000 0.000000 -60.708740 0.000000 38.000000 0.641546 0.527044 -0.557354
-690.00000000 17320.00000000 230.00000000 187 185 69 0.000000 0.000000 0.000000 0.000000 -60.708740 0.000000 38.000000 0.530611 0.638417 -0.557562
-760.00000000 17390.00000000 170.00000000 187 185 69 0.000000 0.000000 0.000000 0.000000 -60.708740 0.000000 38.000000 0.632213 0.712647 -0.304041
-800.00000000 17460.00000000 300.00000000 187 185 69 0.000000 0.000000 0.000000 0.000000 -60.708740 0.000000 38.000000 0.632726 0.464894 -0.619299
-750.00000000 17430.00000000 0.00000000 187 185 69 0.000000 0.000000 0.000000 0.000000 -60.708740 0.000000 38.000000 0.480711 0.759622 -0.438054
-720.00000000 17330.00000000 80.00000000 187 185 69 0.000000 0.000000 0.000000 0.000000 -60.708740 0.000000 38.000000 0.299677 0.946978 -0.115875
-720.00000000 17350.00000000 60.00000000 187 185 69 0.000000 0.000000 0.000000 0.000000 -60.708740 0.000000 38.000000 0.645602 0.514122 -0.564691
-790.00000000 17360.00000000 140.00000000 187 185 69 0.000000 0.000000 0.000000 0.000000 -60.708740 0.000000 38.000000 0.546965 0.779783 -0.304578
-790.00000000 17320.00000000 90.00000000 187 185 69 0.000000 0.000000 0.000000 0.000000 -60.708740 0.000000 38.000000 0.488001 0.714513 -0.501325
-690.00000000 17310.00000000 220.00000000 187 185 69 0.000000 0.000000 0.000000 0.000000 -60.708740 0.000000 38.000000 0.319675 0.820446 -0.474000
-710.00000000 17300.00000000 80.00000000 187 185 69 0.000000 0.000000 0.000000 0.000000 -60.708740 0.000000 38.000000 0.560429 0.644578 -0.520038
-690.00000000 17290.00000000 0.00000000 187 185 69 0.000000 0.000000 0.000000 0.000000 -60.708740 0.000000 38.000000 0.368995 0.806677 -0.461643
-690.00000000 17290.00000000 -10.00000000 187 185 69 0.000000 0.000000 0.000000 0.000000 -60.708740 0.000000 38.000000 0.302498 0.750644 -0.587391
-870.00000000 17470.00000000 60.00000000 187 185 69 0.000000 0.000000 0.000000 0.000000 -60.708740 0.000000 38.000000 0.688556 0.500920 -0.524375
-940.00000000 17440.00000000 70.00000000 187 185 69 0.000000 0.000000 0.000000 0.000000 -60.708740 0.000000 38.000000 0.821596 0.163122 -0.546234
-960.00000000 17480.00000000 40.00000000 187 185 69 0.000000 0.000000 0.000000 0.000000 -60.708740 0.000000 38.000000 0.748922 0.323728 -0.578200
-280.00000000 17880.00000000 -60.00000000 187 185 69 0.000000 0.000000 0.000000 0.000000 -60.708740 0.000000 38.000000 0.297960 0.834599 -0.463319
-330.00000000 17840.00000000 -290.00000000 187 185 69 0.000000 0.000000 0.000000 0.000000 -60.708740 0.000000 38.000000 0.420914 0.830793 -0.364162
-290.00000000 17840.00000000 -320.00000000 187 185 69 0.000000 0.000000 0.000000 0.000000 -60.708740 0.000000 38.000000 0.482844 0.826616 -0.289081
-320.00000000 17840.00000000 -370.00000000 187 185 69 0.000000 0.000000 0.000000 0.000000 -60.708740 0.000000 38.000000 0.526543 0.651029 -0.546730
-320.00000000 17850.00000000 -430.00000000 187 185 69 0.000000 0.000000 0.000000 0.000000 -60.708740 0.000000 38.000000 0.411901 0.822212 -0.392817
-310.00000000 17850.00000000 -510.00000000 187 185 69 0.000000 0.000000 0.000000 0.000000 -60.708740 0.000000 38.000000 0.527571 0.806229 -0.267699
-300.00000000 17840.00000000 -650.00000000 187 185 69 0.000000 0.000000 0.000000 0.000000 -60.708740 0.000000 38.000000 0.582273 0.773748 -0.249545
-280.00000000 17830.00000000 -800.00000000 187 185 69 0.000000 0.000000 0.000000 0.000000 -60.708740 0.000000 38.000000 0.609786 0.745998 -0.267672
-280.00000000 17860.00000000 -930.00000000 187 185 69 0.000000 0.000000 0.000000 0.000000 -60.708740 0.000000 38.000000 0.339395 0.735627 -0.586228
-350.00000000 17860.00000000 -50.00000000 187 185 69 0.000000 0.000000 0.000000 0.000000 -60.708740 0.000000 38.000000 0.253491 0.863690 -0.435640
-360.00000000 17860.00000000 -160.00000000 187 185 69 0.000000 0.000000 0.000000 0.000000 -60.708740 0.000000 38.000000 0.350705 0.868339 -0.350705
-360.00000000 17860.00000000 -120.00000000 187 185 69 0.000000 0.000000 0.000000 0.000000 -60.708740 0.000000 38.000000 0.188225 0.829696 -0.525524
-500.00000000 17860.00000000 -50.00000000 187 185 69 0.000000 0.000000 0.000000 0.000000 -60.708740 0.000000 38.000000 -0.011628 0.921208 -0.388897
-480.00000000 17850.00000000 -90.00000000 187 185 69 0.000000 0.000000 0.000000 0.000000 -60.708740 0.000000 38.000000 -0.151408 0.909861 -0.386302
-450.00000000 17870.00000000 -180.00000000 187 185 69 0.000000 0.000000 0.000000 0.000000 -60.708740 0.000000 38.000000 0.182324 0.933889 -0.307585
-420.00000000 17860.00000000 -230.00000000 187 185 69 0.000000 0.000000 0.000000 0.000000 -60.708740 0.000000 38.000000 0.099541 0.890265 -0.444432
-350.00000000 17840.00000000 -220.00000000 187 185 69 0.000000 0.000000 0.000000 0.000000 -60.708740 0.000000 38.000000 0.317350 0.885873 -0.338406
-370.00000000 17840.00000000 -340.00000000 187 185 69 0.000000 0.000000 0.000000 0.000000 -60.708740 0.000000 38.000000 0.312526 0.899068 -0.306601
-410.00000000 17860.00000000 -330.00000000 187 185 69 0.000000 0.000000 0.000000 0.000000 -60.708740 0.000000 38.000000 0.231704 0.925393 -0.299935
-420.00000000 17870.00000000 -330.00000000 187 185 69 0.000000 0.000000 0.000000 0.000000 -60.708740 0.000000 38.000000 0.472724 0.721526 -0.505898
-540.00000000 17830.00000000 -80.00000000 187 185 69 0.000000 0.000000 0.000000 0.000000 -60.708740 0.000000 38.000000 -0.217947 0.910760 -0.350736
-350.00000000 17850.00000000 -390.00000000 187 185 69 0.000000 0.000000 0.000000 0.000000 -60.708740 0.000000 38.000000 0.400224 0.857623 -0.322961
-380.00000000 17870.00000000 -660.00000000 187 185 69 0.000000 0.000000 0.000000 0.000000 -60.708740 0.000000 38.000000 0.376247 0.885904 -0.271317
-530.00000000 17840.00000000 -360.00000000 187 185 69 0.000000 0.000000 0.000000 0.000000 -60.708740 0.000000 38.000000 0.203399 0.920273 -0.334257
-570.00000000 17870.00000000 -410.00000000 187 185 69 0.000000 0.000000 0.000000 0.000000 -60.708740 0.000000 38.000000 -0.031355 0.868403 -0.494867
-570.00000000 17830.00000000 -460.00000000 187 185 69 0.000000 0.000000 0.000000 0.000000 -60.708740 0.000000 38.000000 -0.250923 0.856178 -0.451661
-870.00000000 17850.00000000 -400.00000000 187 185 69 0.000000 0.000000 0.000000 0.000000 -60.708740 0.000000 38.000000 0.850303 -0.419730 0.317508
-870.00000000 17850.00000000 -400.00000000 187 185 69 0.000000 0.000000 0.000000 0.000000 -60.708740 0.000000 38.000000 0.850303 -0.419730 0.317508
-370.00000000 17880.00000000 -850.00000000 187 185 69 0.000000 0.000000 0.000000 0.000000 -60.708740 0.000000 38.000000 0.610552 0.617279 -0.496178
-580.00000000 17890.00000000 -1080.00000000 187 185 69 0.000000 0.000000 0.000000 0.000000 -60.708740 0.000000 38.000000 0.207814 0.925974 -0.315255
-680.00000000 17860.00000000 -1130.00000000 187 185 69 0.000000 0.000000 0.000000 0.000000 -60.708740 0.000000 38.000000 0.009098 0.911128 -0.412022
-640.00000000 17840.00000000 -1160.00000000 187 185 69 0.000000 0.000000 0.000000 0.000000 -60.708740 0.000000 38.000000 0.035207 0.997528 0.060812
-170.00000000 17750.00000000 -180.00000000 187 185 69 0.000000 0.000000 0.000000 0.000000 -60.708740 0.000000 38.000000 0.723829 0.614207 -0.314358
-160.00000000 17680.00000000 -210.00000000 187 185 69 0.000000 0.000000 0.000000 0.000000 -60.708740 0.000000 38.000000 0.879310 -0.136718 -0.456205
-160.00000000 17680.00000000 -210.00000000 187 185 69 0.000000 0.000000 0.000000 0.000000 -60.708740 0.000000 38.000000 0.879310 -0.136718 -0.456205
-140.00000000 17670.00000000 -190.00000000 187 185 69 0.000000 0.000000 0.000000 0.000000 -60.708740 0.000000 38.000000 0.844502 0.351225 -0.404299
-220.00000000 17790.00000000 -130.00000000 187 185 69 0.000000 0.000000 0.000000 0.000000 -60.708740 0.000000 38.000000 0.615922 0.478304 -0.625991
-200.00000000 17750.00000000 -290.00000000 187 185 69 0.000000 0.000000 0.000000 0.000000 -60.708740 0.000000 38.000000 0.578416 0.722610 -0.378510
-220.00000000 17800.00000000 -340.00000000 187 185 69 0.000000 0.000000 0.000000 0.000000 -60.708740 0.000000 38.000000 0.617768 0.699700 -0.358863
-200.00000000 17760.00000000 -480.00000000 187 185 69 0.000000 0.000000 0.000000 0.000000 -60.708740 0.000000 38.000000 0.798937 0.451713 -0.397057
-200.00000000 17750.00000000 -470.00000000 187 185 69 0.000000 0.000000 0.000000 0.000000 -60.708740 0.000000 38.000000 0.701624 0.603036 -0.379567
-180.00000000 17720.00000000 -500.00000000 187 185 69 0.000000 0.000000 0.000000 0.000000 -60.708740 0.000000 38.000000 0.638469 0.664865 -0.387701
-300.00000000 17820.00000000 -520.00000000 187 185 69 0.000000 0.000000 0.000000 0.000000 -60.708740 0.000000 38.000000 0.288940 0.845188 -0.449634
-110.00000000 17330.00000000 -170.00000000 187 185 69 0.000000 0.000000 0.000000 0.000000 -60.708740 0.000000 38.000000 0.843702 -0.436612 0.312310
-90.00000000 17360.00000000 -300.00000000 187 185 69 0.000000 0.000000 0.000000 0.000000 -60.708740 0.000000 38.000000 0.854862 -0.389420 0.342876
-160.00000000 17210.00000000 -170.00000000 187 185 69 0.000000 0.000000 0.000000 0.000000 -60.708740 0.000000 38.000000 -0.662804 0.685381 -0.301568
-190.00000000 17220.00000000 -80.00000000 187 185 69 0.000000 0.000000 0.000000 0.000000 -60.708740 0.000000 38.000000 0.521363 -0.704590 0.481387
-210.00000000 17180.00000000 -30.00000000 187 185 69 0.000000 0.000000 0.000000 0.000000 -60.708740 0.000000 38.000000 -0.561855 0.732213 -0.384944
-300.00000000 17190.00000000 -40.00000000 187 185 69 0.000000 0.000000 0.000000 0.000000 -60.708740 0.000000 38.000000 -0.415052 0.822154 -0.389609
-300.00000000 17180.00000000 -70.00000000 187 185 69 0.000000 0.000000 0.000000 0.000000 -60.708740 0.000000 38.000000 -0.334335 0.812863 -0.476943
-190.00000000 17190.00000000 -290.00000000 187 185 69 0.000000 0.000000 0.000000 0.000000 -60.708740 0.000000 38.000000 -0.612419 0.685051 -0.394523
-80.00000000 17330.00000000 -590.00000000 187 185 69 0.000000 0.000000 0.000000 0.000000 -60.708740 0.000000 38.000000 0.771255 -0.582761 0.256038
-170.00000000 17190.00000000 -360.00000000 187 185 69 0.000000 0.000000 0.000000 0.000000 -60.708740 0.000000 38.000000 -0.451261 0.835380 0.313853
-160.00000000 17180.00000000 -390.00000000 187 185 69 0.000000 0.000000 0.000000 0.000000 -60.708740 0.000000 38.000000 -0.660304 0.640445 -0.392211
-170.00000000 17180.00000000 -490.00000000 187 185 69 0.000000 0.000000 0.000000 0.000000 -60.708740 0.000000 38.000000 -0.682710 0.593011 -0.426901
-70.00000000 17300.00000000 -650.00000000 187 185 69 0.000000 0.000000 0.000000 0.000000 -60.708740 0.000000 38.000000 -0.719012 0.577513 0.386654
-210.00000000 17750.00000000 -790.00000000 187 185 69 0.000000 0.000000 0.000000 0.000000 -60.708740 0.000000 38.000000 0.780287 0.573878 -0.248628
-260.00000000 17780.00000000 -770.00000000 187 185 69 0.000000 0.000000 0.000000 0.000000 -60.708740 0.000000 38.000000 0.503339 0.752549 -0.424641
-90.00000000 17270.00000000 -720.00000000 187 185 69 0.000000 0.000000 0.000000 0.000000 -60.708740 0.000000 38.000000 -0.631706 0.729866 0.261232
-180.00000000 17140.00000000 -730.00000000 187 185 69 0.000000 0.000000 0.000000 0.000000 -60.708740 0.000000 38.000000 0.925449 -0.377228 -0.035243
-220.00000000 17120.00000000 -820.00000000 187 185 69 0.000000 0.000000 0.000000 0.000000 -60.708740 0.000000 38.000000 0.867706 -0.440620 -0.230085
-220.00000000 17100.00000000 -990.00000000 187 185 69 0.000000 0.000000 0.000000 0.000000 -60.708740 0.000000 38.000000 0.892936 -0.361037 0.268921
-320.00000000 17140.00000000 -910.00000000 187 185 69 0.000000 0.000000 0.000000 0.000000 -60.708740 0.000000 38.000000 0.866799 -0.497074 -0.039711
-240.00000000 17080.00000000 -1060.00000000 187 185 69 0.000000 0.000000 0.000000 0.000000 -60.708740 0.000000 38.000000 0.898682 -0.369180 -0.236805
-270.00000000 17110.00000000 -1040.00000000 187 185 69 0.000000 0.000000 0.000000 0.000000 -60.708740 0.000000 38.000000 -0.748281 0.546131 -0.376586
-270.00000000 17090.00000000 -1100.00000000 187 185 69 0.000000 0.000000 0.000000 0.000000 -60.708740 0.000000 38.000000 0.777960 -0.537354 -0.325620
-340.00000000 17090.00000000 -1060.00000000 187 185 69 0.000000 0.000000 0.000000 0.000000 -60.708740 0.000000 38.000000 -0.491338 0.776735 -0.394043
-300.00000000 17070.00000000 -1170.00000000 187 185 69 0.000000 0.000000 0.000000 0.000000 -60.708740 0.000000 38.000000 0.744655 -0.538443 0.394422
-300.00000000 17070.00000000 -1260.00000000 187 185 69 0.000000 0.000000 0.000000 0.000000 -60.708740 0.000000 38.000000 0.824426 -0.564081 -0.046190
-270.00000000 17010.00000000 -1300.00000000 187 185 69 0.000000 0.000000 0.000000 0.000000 -60.708740 0.000000 38.000000 0.877273 -0.431957 0.209299
-590.00000000 17810.00000000 -160.00000000 187 185 69 0.000000 0.000000 0.000000 0.000000 -60.708740 0.000000 38.000000 -0.566650 0.676971 -0.469701
-620.00000000 17790.00000000 -350.00000000 187 185 69 0.000000 0.000000 0.000000 0.000000 -60.708740 0.000000 38.000000 -0.519313 0.702993 -0.485917
-590.00000000 17810.00000000 -520.00000000 187 185 69 0.000000 0.000000 0.000000 0.000000 -60.708740 0.000000 38.000000 0.096177 0.925197 -0.367098
-590.00000000 17810.00000000 -520.00000000 187 185 69 0.000000 0.000000 0.000000 0.000000 -60.708740 0.000000 38.000000 0.096177 0.925197 -0.367098
-610.00000000 17790.00000000 -360.00000000 187 185 69 0.000000 0.000000 0.000000 0.000000 -60.708740 0.000000 38.000000 -0.421444 0.796062 -0.434362
-660.00000000 17740.00000000 -480.00000000 187 185 69 0.000000 0.000000 0.000000 0.000000 -60.708740 0.000000 38.000000 -0.540859 0.750013 -0.380726
-660.00000000 17740.00000000 -650.00000000 187 185 69 0.000000 0.000000 0.000000 0.000000 -60.708740 0.000000 38.000000 -0.441231 0.790337 -0.425069
-640.00000000 17760.00000000 -680.00000000 187 185 69 0.000000 0.000000 0.000000 0.000000 -60.708740 0.000000 38.000000 -0.019091 0.999777 -0.009043
-420.00000000 17190.00000000 -70.00000000 187 185 69 0.000000 0.000000 0.000000 0.000000 -60.708740 0.000000 38.000000 -0.069939 0.960076 -0.270856
-470.00000000 17180.00000000 -90.00000000 187 185 69 0.000000 0.000000 0.000000 0.000000 -60.708740 0.000000 38.000000 -0.101998 0.926145 -0.363114
-480.00000000 17180.00000000 -80.00000000 187 185 69 0.000000 0.000000 0.000000 0.000000 -60.708740 0.000000 38.000000 -0.385978 0.871120 -0.303595
-510.00000000 17180.00000000 -90.00000000 187 185 69 0.000000 0.000000 0.000000 0.000000 -60.708740 0.000000 38.000000 0.194756 0.834884 -0.514820
-470.00000000 17160.00000000 -160.00000000 187 185 69 0.000000 0.000000 0.000000 0.000000 -60.708740 0.000000 38.000000 0.136380 0.837345 -0.529390
-380.00000000 17170.00000000 -350.00000000 187 185 69 0.000000 0.000000 0.000000 0.000000 -60.708740 0.000000 38.000000 -0.172901 0.861549 -0.477325
-480.00000000 17160.00000000 -250.00000000 187 185 69 0.000000 0.000000 0.000000 0.000000 -60.708740 0.000000 38.000000 0.177180 0.850167 -0.495806
-510.00000000 17180.00000000 -350.00000000 187 185 69 0.000000 0.000000 0.000000 0.000000 -60.708740 0.000000 38.000000 0.211040 0.836568 -0.505585
-570.00000000 17240.00000000 -20.00000000 187 185 69 0.000000 0.000000 0.000000 0.000000 -60.708740 0.000000 38.000000 0.350886 0.814500 -0.462026
-550.00000000 17240.00000000 -110.00000000 187 185 69 0.000000 0.000000 0.000000 0.000000 -60.708740 0.000000 38.000000 0.077168 0.868489 -0.489665
-550.00000000 17210.00000000 -140.00000000 187 185 69 0.000000 0.000000 0.000000 0.000000 -60.708740 0.000000 38.000000 0.102554 0.830541 -0.547435
-570.00000000 17230.00000000 -140.00000000 187 185 69 0.000000 0.000000 0.000000 0.000000 -60.708740 0.000000 38.000000 0.429489 0.765895 -0.478480
-670.00000000 17290.00000000 -80.00000000 187 185 69 0.000000 0.000000 0.000000 0.000000 -60.708740 0.000000 38.000000 0.534175 0.786114 -0.310938
-630.00000000 17250.00000000 -130.00000000 187 185 69 0.000000 0.000000 0.000000 0.000000 -60.708740 0.000000 38.000000 0.011900 0.892505 -0.450880
-660.00000000 17260.00000000 -140.00000000 187 185 69 0.000000 0.000000 0.000000 0.000000 -60.708740 0.000000 38.000000 0.485171 0.642977 -0.592613
-620.00000000 17230.00000000 -100.00000000 187 185 69 0.000000 0.000000 0.000000 0.000000 -60.708740 0.000000 38.000000 0.038915 0.897739 -0.438805
-600.00000000 17230.00000000 -100.00000000 187 185 69 0.000000 0.000000 0.000000 0.000000 -60.708740 0.000000 38.000000 0.319621 0.889838 -0.325624
-560.00000000 17200.00000000 -210.00000000 187 185 69 0.000000 0.000000 0.000000 0.000000 -60.708740 0.000000 38.000000 0.130239 0.930865 -0.341363
-580.00000000 17220.00000000 -220.00000000 187 185 69 0.000000 0.000000 0.000000 0.000000 -60.708740 0.000000 38.000000 0.223405 0.808881 -0.543876
-560.00000000 17190.00000000 -220.00000000 187 185 69 0.000000 0.000000 0.000000 0.000000 -60.708740 0.000000 38.000000 0.165510 0.930472 -0.326847
-550.00000000 17200.00000000 -300.00000000 187 185 69 0.000000 0.000000 0.000000 0.000000 -60.708740 0.000000 38.000000 0.061796 0.885746 -0.460039
-530.00000000 17180.00000000 -280.00000000 187 185 69 0.000000 0.000000 0.000000 0.000000 -60.708740 0.000000 38.000000 0.033183 0.906564 -0.420762
-530.00000000 17180.00000000 -280.00000000 187 185 69 0.000000 0.000000 0.000000 0.000000 -60.708740 0.000000 38.000000 0.033183 0.906564 -0.420762
-590.00000000 17230.00000000 -300.00000000 187 185 69 0.000000 0.000000 0.000000 0.000000 -60.708740 0.000000 38.000000 -0.083232 0.912822 -0.399786
-610.00000000 17260.00000000 -190.00000000 187 185 69 0.000000 0.000000 0.000000 0.000000 -60.708740 0.000000 38.000000 0.014093 0.928826 -0.370249
-640.00000000 17250.00000000 -250.00000000 187 185 69 0.000000 0.000000 0.000000 0.000000 -60.708740 0.000000 38.000000 0.422947 0.745507 -0.515107
-660.00000000 17270.00000000 -270.00000000 187 185 69 0.000000 0.000000 0.000000 0.000000 -60.708740 0.000000 38.000000 0.253012 0.915181 -0.313735
-620.00000000 17250.00000000 -310.00000000 187 185 69 0.000000 0.000000 0.000000 0.000000 -60.708740 0.000000 38.000000 0.155023 0.905961 -0.393958
-660.00000000 17270.00000000 -340.00000000 187 185 69 0.000000 0.000000 0.000000 0.000000 -60.708740 0.000000 38.000000 0.227764 0.794850 -0.562438
-350.00000000 17160.00000000 -370.00000000 187 185 69 0.000000 0.000000 0.000000 0.000000 -60.708740 0.000000 38.000000 -0.315473 0.806913 -0.499367
-410.00000000 17170.00000000 -410.00000000 187 185 69 0.000000 0.000000 0.000000 0.000000 -60.708740 0.000000 38.000000 -0.459379 0.842968 -0.279958
-410.00000000 17170.00000000 -400.00000000 187 185 69 0.000000 0.000000 0.000000 0.000000 -60.708740 0.000000 38.000000 -0.570734 0.767868 -0.290931
-510.00000000 17180.00000000 -410.00000000 187 185 69 0.000000 0.000000 0.000000 0.000000 -60.708740 0.000000 38.000000 -0.220364 0.900429 -0.375057
-490.00000000 17160.00000000 -420.00000000 187 185 69 0.000000 0.000000 0.000000 0.000000 -60.708740 0.000000 38.000000 0.126624 0.889211 -0.439626
-510.00000000 17180.00000000 -410.00000000 187 185 69 0.000000 0.000000 0.000000 0.000000 -60.708740 0.000000 38.000000 -0.220364 0.900429 -0.375057
-480.00000000 17180.00000000 -410.00000000 187 185 69 0.000000 0.000000 0.000000 0.000000 -60.708740 0.000000 38.000000 -0.441974 0.851609 -0.281816
-380.00000000 17160.00000000 -530.00000000 187 185 69 0.000000 0.000000 0.000000 0.000000 -60.708740 0.000000 38.000000 -0.550761 0.782493 -0.290459
-550.00000000 17230.00000000 -490.00000000 187 185 69 0.000000 0.000000 0.000000 0.000000 -60.708740 0.000000 38.000000 0.269251 0.847758 -0.456958
-530.00000000 17210.00000000 -490.00000000 187 185 69 0.000000 0.000000 0.000000 0.000000 -60.708740 0.000000 38.000000 0.239586 0.919608 -0.311318
-650.00000000 17240.00000000 -380.00000000 187 185 69 0.000000 0.000000 0.000000 0.000000 -60.708740 0.000000 38.000000 0.025286 0.971714 -0.234801
-660.00000000 17240.00000000 -520.00000000 187 185 69 0.000000 0.000000 0.000000 0.000000 -60.708740 0.000000 38.000000 0.420193 0.760272 -0.495403
-610.00000000 17200.00000000 -420.00000000 187 185 69 0.000000 0.000000 0.000000 0.000000 -60.708740 0.000000 38.000000 0.312929 0.906464 -0.283546
-610.00000000 17220.00000000 -360.00000000 187 185 69 0.000000 0.000000 0.000000 0.000000 -60.708740 0.000000 38.000000 0.373797 0.862964 -0.339955
-660.00000000 17230.00000000 -450.00000000 187 185 69 0.000000 0.000000 0.000000 0.000000 -60.708740 0.000000 38.000000 0.400237 0.814824 -0.419371
-560.00000000 17190.00000000 -680.00000000 187 185 69 0.000000 0.000000 0.000000 0.000000 -60.708740 0.000000 38.000000 -0.001323 0.879960 -0.475046
-640.00000000 17240.00000000 -540.00000000 187 185 69 0.000000 0.000000 0.000000 0.000000 -60.708740 0.000000 38.000000 0.099179 0.843737 -0.527515
-670.00000000 17230.00000000 -540.00000000 187 185 69 0.000000 0.000000 0.000000 0.000000 -60.708740 0.000000 38.000000 -0.006339 0.934369 -0.356252
-640.00000000 17220.00000000 -680.00000000 187 185 69 0.000000 0.000000 0.000000 0.000000 -60.708740 0.000000 38.000000 -0.182513 0.962460 -0.200896
-650.00000000 17220.00000000 -660.00000000 187 185 69 0.000000 0.000000 0.000000 0.000000 -60.708740 0.000000 38.000000 0.149971 0.898400 -0.412778
-650.00000000 17220.00000000 -660.00000000 187 185 69 0.000000 0.000000 0.000000 0.000000 -60.708740 0.000000 38.000000 0.149971 0.898400 -0.412778
-600.00000000 17190.00000000 -660.00000000 187 185 69 0.000000 0.000000 0.000000 0.000000 -60.708740 0.000000 38.000000 0.218916 0.877154 -0.427408
-750.00000000 17590.00000000 -90.00000000 187 185 69 0.000000 0.000000 0.000000 0.000000 -60.708740 0.000000 38.000000 0.880591 0.344052 -0.325864
-740.00000000 17610.00000000 -200.00000000 187 185 69 0.000000 0.000000 0.000000 0.000000 -60.708740 0.000000 38.000000 0.869496 -0.034125 -0.492760
-910.00000000 17650.00000000 -210.00000000 187 185 69 0.000000 0.000000 0.000000 0.000000 -60.708740 0.000000 38.000000 0.883536 0.157619 -0.441045
-740.00000000 17580.00000000 -440.00000000 187 185 69 0.000000 0.000000 0.000000 0.000000 -60.708740 0.000000 38.000000 0.911587 -0.006484 -0.411057
-770.00000000 17600.00000000 -400.00000000 187 185 69 0.000000 0.000000 0.000000 0.000000 -60.708740 0.000000 38.000000 0.882212 0.079441 -0.464102
-770.00000000 17490.00000000 -430.00000000 187 185 69 0.000000 0.000000 0.000000 0.000000 -60.708740 0.000000 38.000000 0.820984 0.385878 -0.420814
-750.00000000 17570.00000000 -540.00000000 187 185 69 0.000000 0.000000 0.000000 0.000000 -60.708740 0.000000 38.000000 0.916489 0.147368 -0.371929
-730.00000000 17360.00000000 -140.00000000 187 185 69 0.000000 0.000000 0.000000 0.000000 -60.708740 0.000000 38.000000 0.681515 0.601922 -0.416205
-750.00000000 17360.00000000 -170.00000000 187 185 69 0.000000 0.000000 0.000000 0.000000 -60.708740 0.000000 38.000000 0.403576 0.763036 -0.504878
-730.00000000 17320.00000000 -160.00000000 187 185 69 0.000000 0.000000 0.000000 0.000000 -60.708740 0.000000 38.000000 0.641231 0.664309 -0.384079
-780.00000000 17370.00000000 -80.00000000 187 185 69 0.000000 0.000000 0.000000 0.000000 -60.708740 0.000000 38.000000 0.669402 0.439035 -0.599290
-750.00000000 17440.00000000 -320.00000000 187 185 69 0.000000 0.000000 0.000000 0.000000 -60.708740 0.000000 38.000000 0.711394 0.558834 -0.426173
-730.00000000 17360.00000000 -200.00000000 187 185 69 0.000000 0.000000 0.000000 0.000000 -60.708740 0.000000 38.000000 0.654808 0.618152 -0.434873
-730.00000000 17360.00000000 -210.00000000 187 185 69 0.000000 0.000000 0.000000 0.000000 -60.708740 0.000000 38.000000 0.403720 0.716808 -0.568503
-690.00000000 17310.00000000 -30.00000000 187 185 69 0.000000 0.000000 0.000000 0.000000 -60.708740 0.000000 38.000000 0.356478 0.800877 -0.481165
-710.00000000 17310.00000000 -40.00000000 187 185 69 0.000000 0.000000 0.000000 0.000000 -60.708740 0.000000 38.000000 0.592294 0.704483 -0.391013
-700.00000000 17310.00000000 -80.00000000 187 185 69 0.000000 0.000000 0.000000 0.000000 -60.708740 0.000000 38.000000 0.266644 0.843089 -0.467013
-710.00000000 17300.00000000 -70.00000000 187 185 69 0.000000 0.000000 0.000000 0.000000 -60.708740 0.000000 38.000000 0.556637 0.733972 -0.389153
-690.00000000 17310.00000000 -80.00000000 187 185 69 0.000000 0.000000 0.000000 0.000000 -60.708740 0.000000 38.000000 0.568527 0.707758 -0.419351
-710.00000000 17300.00000000 -70.00000000 187 185 69 0.000000 0.000000 0.000000 0.000000 -60.708740 0.000000 38.000000 0.556637 0.733972 -0.389153
-710.00000000 17300.00000000 -140.00000000 187 185 69 0.000000 0.000000 0.000000 0.000000 -60.708740 0.000000 38.000000 0.379308 0.805029 -0.456130
-710.00000000 17280.00000000 -260.00000000 187 185 69 0.000000 0.000000 0.000000 0.000000 -60.708740 0.000000 38.000000 0.655262 0.520504 -0.547455
-710.00000000 17280.00000000 -260.00000000 187 185 69 0.000000 0.000000 0.000000 0.000000 -60.708740 0.000000 38.000000 0.655262 0.520504 -0.547455
