//X Y Z R G B PointSourceId ScanDirectionFlag NumberOfReturns ReturnNumber GpsTime Intensity Classification Nx Ny Nz
980.00000000 1210.00000000 210.00000000 96 51 182 97.000000 1.000000 4.000000 1.000000 -60.708740 114.000000 50.000000 -0.187768 0.584677 0.789237
970.00000000 1220.00000000 200.00000000 96 51 182 97.000000 1.000000 4.000000 1.000000 -60.708740 114.000000 50.000000 0.171638 0.767053 0.618199
980.00000000 1220.00000000 200.00000000 96 51 182 97.000000 1.000000 4.000000 1.000000 -60.708740 114.000000 50.000000 0.092195 0.654145 0.750730
980.00000000 1220.00000000 200.00000000 96 51 182 97.000000 1.000000 4.000000 1.000000 -60.708740 114.000000 50.000000 0.092195 0.654145 0.750730
970.00000000 1160.00000000 230.00000000 96 51 182 97.000000 1.000000 4.000000 1.000000 -60.708740 114.000000 50.000000 0.049416 0.800545 0.597232
930.00000000 1180.00000000 200.00000000 96 51 182 97.000000 1.000000 4.000000 1.000000 -60.708740 114.000000 50.000000 0.417738 -0.556434 -0.718245
960.00000000 1170.00000000 230.00000000 96 51 182 97.000000 1.000000 4.000000 1.000000 -60.708740 114.000000 50.000000 -0.095096 0.653965 0.750524
910.00000000 1220.00000000 250.00000000 96 51 182 97.000000 1.000000 4.000000 1.000000 -60.708740 114.000000 50.000000 -0.086151 0.734474 0.673146
1000.00000000 1300.00000000 130.00000000 96 51 182 97.000000 1.000000 4.000000 1.000000 -60.708740 114.000000 50.000000 0.296540 0.620330 0.726123
1000.00000000 1280.00000000 140.00000000 96 51 182 97.000000 1.000000 4.000000 1.000000 -60.708740 114.000000 50.000000 0.119353 0.599711 0.791265
1000.00000000 1280.00000000 140.00000000 96 51 182 97.000000 1.000000 4.000000 1.000000 -60.708740 114.000000 50.000000 0.119353 0.599711 0.791265
1000.00000000 1200.00000000 130.00000000 96 51 182 97.000000 1.000000 4.000000 1.000000 -60.708740 114.000000 50.000000 -0.281451 0.828805 0.483599
1000.00000000 1200.00000000 130.00000000 96 51 182 97.000000 1.000000 4.000000 1.000000 -60.708740 114.000000 50.000000 -0.281451 0.828805 0.483599
980.00000000 1210.00000000 100.00000000 96 51 182 97.000000 1.000000 4.000000 1.000000 -60.708740 114.000000 50.000000 -0.088987 0.487310 0.868683
980.00000000 1170.00000000 100.00000000 96 51 182 97.000000 1.000000 4.000000 1.000000 -60.708740 114.000000 50.000000 -0.486042 0.586951 0.647496
1000.00000000 1180.00000000 100.00000000 96 51 182 97.000000 1.000000 4.000000 1.000000 -60.708740 114.000000 50.000000 -0.275341 0.536522 0.797703
1000.00000000 1180.00000000 100.00000000 96 51 182 97.000000 1.000000 4.000000 1.000000 -60.708740 114.000000 50.000000 -0.275341 0.536522 0.797703
990.00000000 1140.00000000 300.00000000 96 51 182 97.000000 1.000000 4.000000 1.000000 -60.708740 114.000000 50.000000 0.164582 0.945325 0.281557
1000.00000000 1140.00000000 290.00000000 96 51 182 97.000000 1.000000 4.000000 1.000000 -60.708740 114.000000 50.000000 0.179010 0.906506 0.382365
970.00000000 1140.00000000 270.00000000 96 51 182 97.000000 1.000000 4.000000 1.000000 -60.708740 114.000000 50.000000 0.069987 0.812702 0.578461
970.00000000 1140.00000000 260.00000000 96 51 182 97.000000 1.000000 4.000000 1.000000 -60.708740 114.000000 50.000000 0.133539 0.877335 0.460924
970.00000000 1070.00000000 190.00000000 96 51 182 97.000000 1.000000 4.000000 1.000000 -60.708740 114.000000 50.000000 -0.107552 0.900927 0.420432
970.00000000 980.00000000 200.00000000 96 51 182 97.000000 1.000000 4.000000 1.000000 -60.708740 114.000000 50.000000 0.062763 0.863338 0.500708
1000.00000000 1010.00000000 170.00000000 96 51 182 97.000000 1.000000 4.000000 1.000000 -60.708740 114.000000 50.000000 0.233391 0.640651 0.731502
970.00000000 990.00000000 150.00000000 96 51 182 97.000000 1.000000 4.000000 1.000000 -60.708740 114.000000 50.000000 0.001366 0.586138 0.810210
970.00000000 990.00000000 160.00000000 96 51 182 97.000000 1.000000 4.000000 1.000000 -60.708740 114.000000 50.000000 0.160166 0.940462 0.299798
970.00000000 1000.00000000 170.00000000 96 51 182 97.000000 1.000000 4.000000 1.000000 -60.708740 114.000000 50.000000 -0.083972 0.525181 0.846837
970.00000000 980.00000000 160.00000000 96 51 182 97.000000 1.000000 4.000000 1.000000 -60.708740 114.000000 50.000000 0.102877 0.560752 0.821567
1000.00000000 1010.00000000 160.00000000 96 51 182 97.000000 1.000000 4.000000 1.000000 -60.708740 114.000000 50.000000 -0.166082 0.732895 0.659758
980.00000000 1000.00000000 150.00000000 96 51 182 97.000000 1.000000 4.000000 1.000000 -60.708740 114.000000 50.000000 -0.020691 0.566934 0.823503
930.00000000 1020.00000000 150.00000000 96 51 182 97.000000 1.000000 4.000000 1.000000 -60.708740 114.000000 50.000000 0.046515 0.587786 0.807678
930.00000000 1020.00000000 150.00000000 96 51 182 97.000000 1.000000 4.000000 1.000000 -60.708740 114.000000 50.000000 0.046515 0.587786 0.807678
930.00000000 990.00000000 210.00000000 96 51 182 97.000000 1.000000 4.000000 1.000000 -60.708740 114.000000 50.000000 0.089144 0.746767 0.659084
960.00000000 980.00000000 160.00000000 96 51 182 97.000000 1.000000 4.000000 1.000000 -60.708740 114.000000 50.000000 -0.405903 0.657729 0.634535
960.00000000 1000.00000000 190.00000000 96 51 182 97.000000 1.000000 4.000000 1.000000 -60.708740 114.000000 50.000000 0.195518 0.635819 0.746664
950.00000000 990.00000000 190.00000000 96 51 182 97.000000 1.000000 4.000000 1.000000 -60.708740 114.000000 50.000000 0.254706 0.899570 0.354822
950.00000000 1010.00000000 180.00000000 96 51 182 97.000000 1.000000 4.000000 1.000000 -60.708740 114.000000 50.000000 -0.097813 0.620453 0.778120
910.00000000 1030.00000000 180.00000000 96 51 182 97.000000 1.000000 4.000000 1.000000 -60.708740 114.000000 50.000000 -0.017461 0.874404 0.484885
910.00000000 1030.00000000 180.00000000 96 51 182 97.000000 1.000000 4.000000 1.000000 -60.708740 114.000000 50.000000 -0.017461 0.874404 0.484885
910.00000000 1010.00000000 200.00000000 96 51 182 97.000000 1.000000 4.000000 1.000000 -60.708740 114.000000 50.000000 -0.012539 0.675735 0.737038
900.00000000 990.00000000 170.00000000 96 51 182 97.000000 1.000000 4.000000 1.000000 -60.708740 114.000000 50.000000 -0.295159 0.920032 0.257724
900.00000000 990.00000000 170.00000000 96 51 182 97.000000 1.000000 4.000000 1.000000 -60.708740 114.000000 50.000000 -0.295159 0.920032 0.257724
900.00000000 990.00000000 170.00000000 96 51 182 97.000000 1.000000 4.000000 1.000000 -60.708740 114.000000 50.000000 -0.295159 0.920032 0.257724
910.00000000 990.00000000 180.00000000 96 51 182 97.000000 1.000000 4.000000 1.000000 -60.708740 114.000000 50.000000 -0.436887 0.709319 0.553169
970.00000000 1020.00000000 140.00000000 96 51 182 97.000000 1.000000 4.000000 1.000000 -60.708740 114.000000 50.000000 0.341498 0.829352 0.442216
980.00000000 1020.00000000 140.00000000 96 51 182 97.000000 1.000000 4.000000 1.000000 -60.708740 114.000000 50.000000 -0.315093 0.615642 0.722289
970.00000000 1020.00000000 140.00000000 96 51 182 97.000000 1.000000 4.000000 1.000000 -60.708740 114.000000 50.000000 0.341498 0.829352 0.442216
980.00000000 1020.00000000 140.00000000 96 51 182 97.000000 1.000000 4.000000 1.000000 -60.708740 114.000000 50.000000 -0.315093 0.615642 0.722289
960.00000000 990.00000000 100.00000000 96 51 182 97.000000 1.000000 4.000000 1.000000 -60.708740 114.000000 50.000000 0.220614 0.835289 0.503608
900.00000000 1040.00000000 130.00000000 96 51 182 97.000000 1.000000 4.000000 1.000000 -60.708740 114.000000 50.000000 -0.107941 0.731926 0.672780
970.00000000 820.00000000 680.00000000 96 51 182 97.000000 1.000000 4.000000 1.000000 -60.708740 114.000000 50.000000 0.452293 0.796744 0.400786
990.00000000 790.00000000 670.00000000 96 51 182 97.000000 1.000000 4.000000 1.000000 -60.708740 114.000000 50.000000 0.604563 0.350353 0.715372
950.00000000 790.00000000 710.00000000 96 51 182 97.000000 1.000000 4.000000 1.000000 -60.708740 114.000000 50.000000 0.082486 0.609240 0.788684
930.00000000 730.00000000 670.00000000 96 51 182 97.000000 1.000000 4.000000 1.000000 -60.708740 114.000000 50.000000 0.243256 0.528346 0.813436
930.00000000 740.00000000 660.00000000 96 51 182 97.000000 1.000000 4.000000 1.000000 -60.708740 114.000000 50.000000 0.485823 0.579961 0.653928
940.00000000 730.00000000 660.00000000 96 51 182 97.000000 1.000000 4.000000 1.000000 -60.708740 114.000000 50.000000 0.529076 0.529076 0.663444
940.00000000 730.00000000 660.00000000 96 51 182 97.000000 1.000000 4.000000 1.000000 -60.708740 114.000000 50.000000 0.529076 0.529076 0.663444
980.00000000 650.00000000 730.00000000 96 51 182 97.000000 1.000000 4.000000 1.000000 -60.708740 114.000000 50.000000 0.264685 0.451341 0.852193
970.00000000 660.00000000 720.00000000 96 51 182 97.000000 1.000000 4.000000 1.000000 -60.708740 114.000000 50.000000 0.523754 0.564172 0.638272
970.00000000 660.00000000 720.00000000 96 51 182 97.000000 1.000000 4.000000 1.000000 -60.708740 114.000000 50.000000 0.523754 0.564172 0.638272
1000.00000000 660.00000000 720.00000000 96 51 182 97.000000 1.000000 4.000000 1.000000 -60.708740 114.000000 50.000000 0.436887 0.553169 0.709319
970.00000000 680.00000000 700.00000000 96 51 182 97.000000 1.000000 4.000000 1.000000 -60.708740 114.000000 50.000000 0.613453 0.586414 0.528956
970.00000000 670.00000000 670.00000000 96 51 182 97.000000 1.000000 4.000000 1.000000 -60.708740 114.000000 50.000000 0.786754 0.426632 0.446098
970.00000000 650.00000000 670.00000000 96 51 182 97.000000 1.000000 4.000000 1.000000 -60.708740 114.000000 50.000000 0.676105 0.162569 0.718647
970.00000000 670.00000000 670.00000000 96 51 182 97.000000 1.000000 4.000000 1.000000 -60.708740 114.000000 50.000000 0.786754 0.426632 0.446098
990.00000000 660.00000000 690.00000000 96 51 182 97.000000 1.000000 4.000000 1.000000 -60.708740 114.000000 50.000000 0.391726 0.469104 0.791512
950.00000000 700.00000000 710.00000000 96 51 182 97.000000 1.000000 4.000000 1.000000 -60.708740 114.000000 50.000000 0.672241 0.501247 0.544834
940.00000000 710.00000000 710.00000000 96 51 182 97.000000 1.000000 4.000000 1.000000 -60.708740 114.000000 50.000000 0.636502 0.552085 0.538579
940.00000000 690.00000000 680.00000000 96 51 182 97.000000 1.000000 4.000000 1.000000 -60.708740 114.000000 50.000000 0.251845 0.508325 0.823517
940.00000000 720.00000000 670.00000000 96 51 182 97.000000 1.000000 4.000000 1.000000 -60.708740 114.000000 50.000000 0.394938 0.545703 0.739075
940.00000000 690.00000000 680.00000000 96 51 182 97.000000 1.000000 4.000000 1.000000 -60.708740 114.000000 50.000000 0.251845 0.508325 0.823517
940.00000000 720.00000000 670.00000000 96 51 182 97.000000 1.000000 4.000000 1.000000 -60.708740 114.000000 50.000000 0.394938 0.545703 0.739075
930.00000000 650.00000000 710.00000000 96 51 182 97.000000 1.000000 4.000000 1.000000 -60.708740 114.000000 50.000000 0.216835 0.656746 0.722265
940.00000000 670.00000000 700.00000000 96 51 182 97.000000 1.000000 4.000000 1.000000 -60.708740 114.000000 50.000000 0.630771 0.499570 0.593766
930.00000000 650.00000000 720.00000000 96 51 182 97.000000 1.000000 4.000000 1.000000 -60.708740 114.000000 50.000000 0.594111 0.560259 0.577185
940.00000000 650.00000000 700.00000000 96 51 182 97.000000 1.000000 4.000000 1.000000 -60.708740 114.000000 50.000000 0.515546 0.542415 0.663324
930.00000000 650.00000000 720.00000000 96 51 182 97.000000 1.000000 4.000000 1.000000 -60.708740 114.000000 50.000000 0.594111 0.560259 0.577185
960.00000000 680.00000000 700.00000000 96 51 182 97.000000 1.000000 4.000000 1.000000 -60.708740 114.000000 50.000000 0.161477 0.777202 0.608179
960.00000000 650.00000000 700.00000000 96 51 182 97.000000 1.000000 4.000000 1.000000 -60.708740 114.000000 50.000000 0.297957 0.342875 0.890875
950.00000000 660.00000000 690.00000000 96 51 182 97.000000 1.000000 4.000000 1.000000 -60.708740 114.000000 50.000000 0.796447 0.394201 0.458560
960.00000000 650.00000000 680.00000000 96 51 182 97.000000 1.000000 4.000000 1.000000 -60.708740 114.000000 50.000000 0.724213 0.332133 0.604321
960.00000000 650.00000000 680.00000000 96 51 182 97.000000 1.000000 4.000000 1.000000 -60.708740 114.000000 50.000000 0.724213 0.332133 0.604321
950.00000000 670.00000000 690.00000000 96 51 182 97.000000 1.000000 4.000000 1.000000 -60.708740 114.000000 50.000000 0.772356 0.388617 0.502438
950.00000000 680.00000000 680.00000000 96 51 182 97.000000 1.000000 4.000000 1.000000 -60.708740 114.000000 50.000000 0.663451 0.485411 0.569393
950.00000000 670.00000000 680.00000000 96 51 182 97.000000 1.000000 4.000000 1.000000 -60.708740 114.000000 50.000000 0.570613 0.434198 0.697046
940.00000000 680.00000000 690.00000000 96 51 182 97.000000 1.000000 4.000000 1.000000 -60.708740 114.000000 50.000000 0.698672 0.551934 0.455221
950.00000000 660.00000000 690.00000000 96 51 182 97.000000 1.000000 4.000000 1.000000 -60.708740 114.000000 50.000000 0.796447 0.394201 0.458560
940.00000000 680.00000000 690.00000000 96 51 182 97.000000 1.000000 4.000000 1.000000 -60.708740 114.000000 50.000000 0.698672 0.551934 0.455221
950.00000000 680.00000000 680.00000000 96 51 182 97.000000 1.000000 4.000000 1.000000 -60.708740 114.000000 50.000000 0.663451 0.485411 0.569393
990.00000000 820.00000000 610.00000000 96 51 182 97.000000 1.000000 4.000000 1.000000 -60.708740 114.000000 50.000000 0.292461 0.380351 0.877383
970.00000000 830.00000000 600.00000000 96 51 182 97.000000 1.000000 4.000000 1.000000 -60.708740 114.000000 50.000000 0.020534 0.839173 0.543477
980.00000000 810.00000000 590.00000000 96 51 182 97.000000 1.000000 4.000000 1.000000 -60.708740 114.000000 50.000000 0.682681 0.370128 0.630041
990.00000000 840.00000000 600.00000000 96 51 182 97.000000 1.000000 4.000000 1.000000 -60.708740 114.000000 50.000000 0.302800 0.484794 0.820541
990.00000000 830.00000000 600.00000000 96 51 182 97.000000 1.000000 4.000000 1.000000 -60.708740 114.000000 50.000000 0.130293 0.717359 0.684412
950.00000000 870.00000000 600.00000000 96 51 182 97.000000 1.000000 4.000000 1.000000 -60.708740 114.000000 50.000000 0.064837 0.930217 0.361237
960.00000000 870.00000000 610.00000000 96 51 182 97.000000 1.000000 4.000000 1.000000 -60.708740 114.000000 50.000000 0.515254 0.407296 0.754071
950.00000000 870.00000000 600.00000000 96 51 182 97.000000 1.000000 4.000000 1.000000 -60.708740 114.000000 50.000000 0.064837 0.930217 0.361237
970.00000000 860.00000000 520.00000000 96 51 182 97.000000 1.000000 4.000000 1.000000 -60.708740 114.000000 50.000000 0.023758 0.644255 0.764442
970.00000000 870.00000000 510.00000000 96 51 182 97.000000 1.000000 4.000000 1.000000 -60.708740 114.000000 50.000000 0.445754 0.717514 0.535236
970.00000000 860.00000000 520.00000000 96 51 182 97.000000 1.000000 4.000000 1.000000 -60.708740 114.000000 50.000000 0.023758 0.644255 0.764442
1000.00000000 860.00000000 510.00000000 96 51 182 97.000000 1.000000 4.000000 1.000000 -60.708740 114.000000 50.000000 0.163346 0.487096 0.857937
980.00000000 830.00000000 550.00000000 96 51 182 97.000000 1.000000 4.000000 1.000000 -60.708740 114.000000 50.000000 0.272935 0.659194 0.700693
970.00000000 830.00000000 550.00000000 96 51 182 97.000000 1.000000 4.000000 1.000000 -60.708740 114.000000 50.000000 0.001365 0.579946 0.814654
980.00000000 820.00000000 560.00000000 96 51 182 97.000000 1.000000 4.000000 1.000000 -60.708740 114.000000 50.000000 0.216096 0.620305 0.754005
970.00000000 830.00000000 520.00000000 96 51 182 97.000000 1.000000 4.000000 1.000000 -60.708740 114.000000 50.000000 0.399166 0.322107 0.858437
950.00000000 870.00000000 530.00000000 96 51 182 97.000000 1.000000 4.000000 1.000000 -60.708740 114.000000 50.000000 0.428986 0.850229 0.305091
960.00000000 870.00000000 520.00000000 96 51 182 97.000000 1.000000 4.000000 1.000000 -60.708740 114.000000 50.000000 0.300420 0.734181 0.608872
960.00000000 870.00000000 520.00000000 96 51 182 97.000000 1.000000 4.000000 1.000000 -60.708740 114.000000 50.000000 0.300420 0.734181 0.608872
950.00000000 830.00000000 560.00000000 96 51 182 97.000000 1.000000 4.000000 1.000000 -60.708740 114.000000 50.000000 0.393966 0.521474 0.756872
950.00000000 830.00000000 540.00000000 96 51 182 97.000000 1.000000 4.000000 1.000000 -60.708740 114.000000 50.000000 0.173289 0.484320 0.857558
950.00000000 830.00000000 560.00000000 96 51 182 97.000000 1.000000 4.000000 1.000000 -60.708740 114.000000 50.000000 0.393966 0.521474 0.756872
950.00000000 840.00000000 540.00000000 96 51 182 97.000000 1.000000 4.000000 1.000000 -60.708740 114.000000 50.000000 0.226002 0.394396 0.890716
1000.00000000 900.00000000 430.00000000 96 51 182 97.000000 1.000000 4.000000 1.000000 -60.708740 114.000000 50.000000 0.309103 0.574964 0.757543
920.00000000 910.00000000 450.00000000 96 51 182 97.000000 1.000000 4.000000 1.000000 -60.708740 114.000000 50.000000 0.238912 0.818468 0.522524
920.00000000 910.00000000 450.00000000 96 51 182 97.000000 1.000000 4.000000 1.000000 -60.708740 114.000000 50.000000 0.238912 0.818468 0.522524
930.00000000 920.00000000 440.00000000 96 51 182 97.000000 1.000000 4.000000 1.000000 -60.708740 114.000000 50.000000 0.068240 0.921912 0.381342
920.00000000 920.00000000 440.00000000 96 51 182 97.000000 1.000000 4.000000 1.000000 -60.708740 114.000000 50.000000 0.301458 0.898434 0.319278
920.00000000 900.00000000 420.00000000 96 51 182 97.000000 1.000000 4.000000 1.000000 -60.708740 114.000000 50.000000 -0.186727 0.809150 0.557144
920.00000000 910.00000000 370.00000000 96 51 182 97.000000 1.000000 4.000000 1.000000 -60.708740 114.000000 50.000000 -0.001300 0.903843 0.427862
1000.00000000 850.00000000 430.00000000 96 51 182 97.000000 1.000000 4.000000 1.000000 -60.708740 114.000000 50.000000 0.658612 0.403130 0.635387
990.00000000 890.00000000 420.00000000 96 51 182 97.000000 1.000000 4.000000 1.000000 -60.708740 114.000000 50.000000 0.006862 0.800146 0.599766
990.00000000 860.00000000 430.00000000 96 51 182 97.000000 1.000000 4.000000 1.000000 -60.708740 114.000000 50.000000 0.441836 0.422415 0.791421
1000.00000000 850.00000000 430.00000000 96 51 182 97.000000 1.000000 4.000000 1.000000 -60.708740 114.000000 50.000000 0.658612 0.403130 0.635387
1000.00000000 850.00000000 430.00000000 96 51 182 97.000000 1.000000 4.000000 1.000000 -60.708740 114.000000 50.000000 0.658612 0.403130 0.635387
940.00000000 880.00000000 460.00000000 96 51 182 97.000000 1.000000 4.000000 1.000000 -60.708740 114.000000 50.000000 0.285683 0.541377 0.790757
920.00000000 880.00000000 460.00000000 96 51 182 97.000000 1.000000 4.000000 1.000000 -60.708740 114.000000 50.000000 -0.095285 0.904514 0.415662
940.00000000 890.00000000 450.00000000 96 51 182 97.000000 1.000000 4.000000 1.000000 -60.708740 114.000000 50.000000 0.189808 0.926547 0.324783
980.00000000 880.00000000 380.00000000 96 51 182 97.000000 1.000000 4.000000 1.000000 -60.708740 114.000000 50.000000 0.663257 0.545718 0.512135
980.00000000 870.00000000 390.00000000 96 51 182 97.000000 1.000000 4.000000 1.000000 -60.708740 114.000000 50.000000 0.331684 0.577616 0.745885
990.00000000 880.00000000 370.00000000 96 51 182 97.000000 1.000000 4.000000 1.000000 -60.708740 114.000000 50.000000 0.538898 0.332991 0.773761
1000.00000000 860.00000000 370.00000000 96 51 182 97.000000 1.000000 4.000000 1.000000 -60.708740 114.000000 50.000000 0.117629 0.837924 0.532960
980.00000000 870.00000000 400.00000000 96 51 182 97.000000 1.000000 4.000000 1.000000 -60.708740 114.000000 50.000000 0.319185 0.845451 0.428175
990.00000000 880.00000000 370.00000000 96 51 182 97.000000 1.000000 4.000000 1.000000 -60.708740 114.000000 50.000000 0.538898 0.332991 0.773761
1000.00000000 890.00000000 390.00000000 96 51 182 97.000000 1.000000 4.000000 1.000000 -60.708740 114.000000 50.000000 0.466514 0.670510 0.576872
1000.00000000 880.00000000 350.00000000 96 51 182 97.000000 1.000000 4.000000 1.000000 -60.708740 114.000000 50.000000 0.575198 0.534714 0.619054
990.00000000 890.00000000 350.00000000 96 51 182 97.000000 1.000000 4.000000 1.000000 -60.708740 114.000000 50.000000 0.684085 0.490066 0.540243
990.00000000 890.00000000 350.00000000 96 51 182 97.000000 1.000000 4.000000 1.000000 -60.708740 114.000000 50.000000 0.684085 0.490066 0.540243
990.00000000 820.00000000 360.00000000 96 51 182 97.000000 1.000000 4.000000 1.000000 -60.708740 114.000000 50.000000 0.278825 0.626162 0.728133
1000.00000000 810.00000000 320.00000000 96 51 182 97.000000 1.000000 4.000000 1.000000 -60.708740 114.000000 50.000000 0.741175 0.444045 0.503471
960.00000000 810.00000000 370.00000000 96 51 182 97.000000 1.000000 4.000000 1.000000 -60.708740 114.000000 50.000000 0.123141 0.618673 0.775938
910.00000000 920.00000000 450.00000000 96 51 182 97.000000 1.000000 4.000000 1.000000 -60.708740 114.000000 50.000000 0.006932 0.705702 0.708475
900.00000000 920.00000000 450.00000000 96 51 182 97.000000 1.000000 4.000000 1.000000 -60.708740 114.000000 50.000000 0.158429 0.519707 0.839527
890.00000000 920.00000000 450.00000000 96 51 182 97.000000 1.000000 4.000000 1.000000 -60.708740 114.000000 50.000000 0.099540 0.450032 0.887447
910.00000000 920.00000000 440.00000000 96 51 182 97.000000 1.000000 4.000000 1.000000 -60.708740 114.000000 50.000000 0.134411 0.921478 0.364434
890.00000000 920.00000000 430.00000000 96 51 182 97.000000 1.000000 4.000000 1.000000 -60.708740 114.000000 50.000000 0.057887 0.568989 0.820305
910.00000000 920.00000000 440.00000000 96 51 182 97.000000 1.000000 4.000000 1.000000 -60.708740 114.000000 50.000000 0.134411 0.921478 0.364434
910.00000000 910.00000000 370.00000000 96 51 182 97.000000 1.000000 4.000000 1.000000 -60.708740 114.000000 50.000000 -0.207887 0.902781 0.376522
980.00000000 790.00000000 570.00000000 96 51 182 97.000000 1.000000 4.000000 1.000000 -60.708740 114.000000 50.000000 0.243119 0.398238 0.884477
970.00000000 800.00000000 570.00000000 96 51 182 97.000000 1.000000 4.000000 1.000000 -60.708740 114.000000 50.000000 0.225343 0.328686 0.917162
970.00000000 770.00000000 580.00000000 96 51 182 97.000000 1.000000 4.000000 1.000000 -60.708740 114.000000 50.000000 0.388570 0.303237 0.870092
970.00000000 800.00000000 610.00000000 96 51 182 97.000000 1.000000 4.000000 1.000000 -60.708740 114.000000 50.000000 0.641226 0.489755 0.590736
970.00000000 780.00000000 610.00000000 96 51 182 97.000000 1.000000 4.000000 1.000000 -60.708740 114.000000 50.000000 0.658570 0.283618 0.697027
970.00000000 750.00000000 620.00000000 96 51 182 97.000000 1.000000 4.000000 1.000000 -60.708740 114.000000 50.000000 0.432202 0.774702 0.461560
980.00000000 760.00000000 620.00000000 96 51 182 97.000000 1.000000 4.000000 1.000000 -60.708740 114.000000 50.000000 0.728385 0.482825 0.486143
970.00000000 750.00000000 620.00000000 96 51 182 97.000000 1.000000 4.000000 1.000000 -60.708740 114.000000 50.000000 0.432202 0.774702 0.461560
970.00000000 750.00000000 620.00000000 96 51 182 97.000000 1.000000 4.000000 1.000000 -60.708740 114.000000 50.000000 0.432202 0.774702 0.461560
930.00000000 770.00000000 650.00000000 96 51 182 97.000000 1.000000 4.000000 1.000000 -60.708740 114.000000 50.000000 0.439383 0.810062 0.388255
940.00000000 790.00000000 600.00000000 96 51 182 97.000000 1.000000 4.000000 1.000000 -60.708740 114.000000 50.000000 0.377134 0.775309 0.506622
950.00000000 790.00000000 570.00000000 96 51 182 97.000000 1.000000 4.000000 1.000000 -60.708740 114.000000 50.000000 0.347474 0.693317 0.631326
940.00000000 790.00000000 600.00000000 96 51 182 97.000000 1.000000 4.000000 1.000000 -60.708740 114.000000 50.000000 0.377134 0.775309 0.506622
940.00000000 770.00000000 600.00000000 96 51 182 97.000000 1.000000 4.000000 1.000000 -60.708740 114.000000 50.000000 0.121296 0.463777 0.877609
960.00000000 780.00000000 600.00000000 96 51 182 97.000000 1.000000 4.000000 1.000000 -60.708740 114.000000 50.000000 0.273574 0.776445 0.567706
960.00000000 740.00000000 650.00000000 96 51 182 97.000000 1.000000 4.000000 1.000000 -60.708740 114.000000 50.000000 0.174325 0.877485 0.446800
940.00000000 760.00000000 650.00000000 96 51 182 97.000000 1.000000 4.000000 1.000000 -60.708740 114.000000 50.000000 0.638764 0.674890 0.369465
940.00000000 760.00000000 630.00000000 96 51 182 97.000000 1.000000 4.000000 1.000000 -60.708740 114.000000 50.000000 0.067992 0.473168 0.878344
960.00000000 750.00000000 590.00000000 96 51 182 97.000000 1.000000 4.000000 1.000000 -60.708740 114.000000 50.000000 0.517720 0.521071 0.678565
920.00000000 740.00000000 610.00000000 96 51 182 97.000000 1.000000 4.000000 1.000000 -60.708740 114.000000 50.000000 0.316583 0.750479 0.580135
1000.00000000 800.00000000 550.00000000 96 51 182 97.000000 1.000000 4.000000 1.000000 -60.708740 114.000000 50.000000 0.076963 0.736232 0.672338
970.00000000 680.00000000 640.00000000 96 51 182 97.000000 1.000000 4.000000 1.000000 -60.708740 114.000000 50.000000 0.771039 0.490661 0.405896
960.00000000 670.00000000 650.00000000 96 51 182 97.000000 1.000000 4.000000 1.000000 -60.708740 114.000000 50.000000 0.511423 0.748223 0.422623
980.00000000 790.00000000 340.00000000 96 51 182 97.000000 1.000000 4.000000 1.000000 -60.708740 114.000000 50.000000 0.467309 0.304767 0.829903
980.00000000 790.00000000 340.00000000 96 51 182 97.000000 1.000000 4.000000 1.000000 -60.708740 114.000000 50.000000 0.467309 0.304767 0.829903
1000.00000000 770.00000000 340.00000000 96 51 182 97.000000 1.000000 4.000000 1.000000 -60.708740 114.000000 50.000000 0.376462 0.532913 0.757813
980.00000000 790.00000000 340.00000000 96 51 182 97.000000 1.000000 4.000000 1.000000 -60.708740 114.000000 50.000000 0.467309 0.304767 0.829903
990.00000000 950.00000000 160.00000000 96 51 182 97.000000 1.000000 4.000000 1.000000 -60.708740 114.000000 50.000000 0.365669 0.601795 0.710020
920.00000000 960.00000000 160.00000000 96 51 182 97.000000 1.000000 4.000000 1.000000 -60.708740 114.000000 50.000000 -0.077313 0.915550 0.394704
930.00000000 920.00000000 160.00000000 96 51 182 97.000000 1.000000 4.000000 1.000000 -60.708740 114.000000 50.000000 -0.325624 0.889838 0.319621
1000.00000000 880.00000000 300.00000000 96 51 182 97.000000 1.000000 4.000000 1.000000 -60.708740 114.000000 50.000000 0.264385 0.441661 0.857342
1000.00000000 810.00000000 310.00000000 96 51 182 97.000000 1.000000 4.000000 1.000000 -60.708740 114.000000 50.000000 0.440307 0.502972 0.743740
880.00000000 930.00000000 180.00000000 96 51 182 97.000000 1.000000 4.000000 1.000000 -60.708740 114.000000 50.000000 -0.483299 0.740619 0.466804
880.00000000 910.00000000 160.00000000 96 51 182 97.000000 1.000000 4.000000 1.000000 -60.708740 114.000000 50.000000 -0.404790 0.892875 0.197280
870.00000000 930.00000000 180.00000000 96 51 182 97.000000 1.000000 4.000000 1.000000 -60.708740 114.000000 50.000000 -0.208740 0.880853 0.424882
840.00000000 890.00000000 180.00000000 96 51 182 97.000000 1.000000 4.000000 1.000000 -60.708740 114.000000 50.000000 0.855537 -0.512760 0.071646
840.00000000 890.00000000 180.00000000 96 51 182 97.000000 1.000000 4.000000 1.000000 -60.708740 114.000000 50.000000 0.855537 -0.512760 0.071646
1000.00000000 950.00000000 130.00000000 96 51 182 97.000000 1.000000 4.000000 1.000000 -60.708740 114.000000 50.000000 0.038261 0.670274 0.741127
1000.00000000 940.00000000 130.00000000 96 51 182 97.000000 1.000000 4.000000 1.000000 -60.708740 114.000000 50.000000 0.093749 0.888520 0.449158
1000.00000000 690.00000000 260.00000000 96 51 182 97.000000 1.000000 4.000000 1.000000 -60.708740 114.000000 50.000000 0.811270 -0.544425 -0.213169
990.00000000 640.00000000 180.00000000 96 51 182 97.000000 1.000000 4.000000 1.000000 -60.708740 114.000000 50.000000 0.791495 -0.432166 -0.432166
990.00000000 680.00000000 170.00000000 96 51 182 97.000000 1.000000 4.000000 1.000000 -60.708740 114.000000 50.000000 -0.477722 0.782169 0.399991
960.00000000 660.00000000 200.00000000 96 51 182 97.000000 1.000000 4.000000 1.000000 -60.708740 114.000000 50.000000 -0.258284 0.796766 0.546309
960.00000000 660.00000000 200.00000000 96 51 182 97.000000 1.000000 4.000000 1.000000 -60.708740 114.000000 50.000000 -0.258284 0.796766 0.546309
940.00000000 650.00000000 190.00000000 96 51 182 97.000000 1.000000 4.000000 1.000000 -60.708740 114.000000 50.000000 -0.299888 0.884595 0.357153
960.00000000 670.00000000 180.00000000 96 51 182 97.000000 1.000000 4.000000 1.000000 -60.708740 114.000000 50.000000 0.581574 -0.622032 -0.524260
890.00000000 660.00000000 170.00000000 96 51 182 97.000000 1.000000 4.000000 1.000000 -60.708740 114.000000 50.000000 0.025775 0.866867 0.497872
860.00000000 650.00000000 170.00000000 96 51 182 97.000000 1.000000 4.000000 1.000000 -60.708740 114.000000 50.000000 0.578117 0.625311 0.524182
990.00000000 740.00000000 100.00000000 96 51 182 97.000000 1.000000 4.000000 1.000000 -60.708740 114.000000 50.000000 0.751106 -0.556435 -0.355275
990.00000000 740.00000000 100.00000000 96 51 182 97.000000 1.000000 4.000000 1.000000 -60.708740 114.000000 50.000000 0.751106 -0.556435 -0.355275
920.00000000 730.00000000 80.00000000 96 51 182 97.000000 1.000000 4.000000 1.000000 -60.708740 114.000000 50.000000 0.014647 0.459374 0.888122
920.00000000 730.00000000 80.00000000 96 51 182 97.000000 1.000000 4.000000 1.000000 -60.708740 114.000000 50.000000 0.014647 0.459374 0.888122
990.00000000 700.00000000 120.00000000 96 51 182 97.000000 1.000000 4.000000 1.000000 -60.708740 114.000000 50.000000 0.798986 -0.531081 -0.282088
1000.00000000 710.00000000 120.00000000 96 51 182 97.000000 1.000000 4.000000 1.000000 -60.708740 114.000000 50.000000 0.867818 -0.374983 -0.326006
940.00000000 710.00000000 80.00000000 96 51 182 97.000000 1.000000 4.000000 1.000000 -60.708740 114.000000 50.000000 0.383954 -0.673979 -0.631135
940.00000000 660.00000000 130.00000000 96 51 182 97.000000 1.000000 4.000000 1.000000 -60.708740 114.000000 50.000000 -0.239548 0.811373 0.533188
960.00000000 660.00000000 140.00000000 96 51 182 97.000000 1.000000 4.000000 1.000000 -60.708740 114.000000 50.000000 0.535899 -0.579853 -0.613664
940.00000000 650.00000000 140.00000000 96 51 182 97.000000 1.000000 4.000000 1.000000 -60.708740 114.000000 50.000000 -0.254721 0.889288 0.379847
990.00000000 720.00000000 60.00000000 96 51 182 97.000000 1.000000 4.000000 1.000000 -60.708740 114.000000 50.000000 -0.141074 0.896318 0.420372
870.00000000 720.00000000 120.00000000 96 51 182 97.000000 1.000000 4.000000 1.000000 -60.708740 114.000000 50.000000 0.687092 0.536634 0.489825
780.00000000 910.00000000 180.00000000 96 51 182 97.000000 1.000000 4.000000 1.000000 -60.708740 114.000000 50.000000 0.841347 -0.426137 -0.332480
780.00000000 910.00000000 180.00000000 96 51 182 97.000000 1.000000 4.000000 1.000000 -60.708740 114.000000 50.000000 0.841347 -0.426137 -0.332480
830.00000000 880.00000000 160.00000000 96 51 182 97.000000 1.000000 4.000000 1.000000 -60.708740 114.000000 50.000000 0.756281 -0.616517 0.218964
800.00000000 830.00000000 190.00000000 96 51 182 97.000000 1.000000 4.000000 1.000000 -60.708740 114.000000 50.000000 0.869704 -0.464918 -0.165728
790.00000000 870.00000000 190.00000000 96 51 182 97.000000 1.000000 4.000000 1.000000 -60.708740 114.000000 50.000000 0.753874 -0.639055 0.152588
790.00000000 840.00000000 230.00000000 96 51 182 97.000000 1.000000 4.000000 1.000000 -60.708740 114.000000 50.000000 0.846963 -0.474605 0.239591
770.00000000 810.00000000 200.00000000 96 51 182 97.000000 1.000000 4.000000 1.000000 -60.708740 114.000000 50.000000 0.921886 -0.265239 -0.282444
750.00000000 840.00000000 260.00000000 96 51 182 97.000000 1.000000 4.000000 1.000000 -60.708740 114.000000 50.000000 0.597035 -0.640762 -0.482673
730.00000000 840.00000000 250.00000000 96 51 182 97.000000 1.000000 4.000000 1.000000 -60.708740 114.000000 50.000000 0.940907 -0.125544 -0.314536
740.00000000 810.00000000 260.00000000 96 51 182 97.000000 1.000000 4.000000 1.000000 -60.708740 114.000000 50.000000 0.727955 -0.629196 0.272386
740.00000000 860.00000000 210.00000000 96 51 182 97.000000 1.000000 4.000000 1.000000 -60.708740 114.000000 50.000000 0.788589 -0.608506 -0.088589
740.00000000 860.00000000 200.00000000 96 51 182 97.000000 1.000000 4.000000 1.000000 -60.708740 114.000000 50.000000 0.885654 -0.449204 -0.117615
740.00000000 850.00000000 210.00000000 96 51 182 97.000000 1.000000 4.000000 1.000000 -60.708740 114.000000 50.000000 0.937800 -0.343034 0.053477
750.00000000 820.00000000 200.00000000 96 51 182 97.000000 1.000000 4.000000 1.000000 -60.708740 114.000000 50.000000 0.908027 -0.374400 -0.187917
740.00000000 830.00000000 190.00000000 96 51 182 97.000000 1.000000 4.000000 1.000000 -60.708740 114.000000 50.000000 0.901693 -0.420975 0.098644
790.00000000 800.00000000 300.00000000 96 51 182 97.000000 1.000000 4.000000 1.000000 -60.708740 114.000000 50.000000 0.845156 -0.315961 -0.431138
790.00000000 730.00000000 250.00000000 96 51 182 97.000000 1.000000 4.000000 1.000000 -60.708740 114.000000 50.000000 0.943615 -0.319802 0.085544
800.00000000 640.00000000 230.00000000 96 51 182 97.000000 1.000000 4.000000 1.000000 -60.708740 114.000000 50.000000 0.766312 0.413384 0.491812
810.00000000 660.00000000 230.00000000 96 51 182 97.000000 1.000000 4.000000 1.000000 -60.708740 114.000000 50.000000 0.526883 0.661550 0.533616
820.00000000 640.00000000 210.00000000 96 51 182 97.000000 1.000000 4.000000 1.000000 -60.708740 114.000000 50.000000 0.713587 0.457428 0.530616
820.00000000 660.00000000 220.00000000 96 51 182 97.000000 1.000000 4.000000 1.000000 -60.708740 114.000000 50.000000 0.673735 0.519162 0.525883
830.00000000 640.00000000 190.00000000 96 51 182 97.000000 1.000000 4.000000 1.000000 -60.708740 114.000000 50.000000 0.570743 0.276676 0.773112
830.00000000 640.00000000 190.00000000 96 51 182 97.000000 1.000000 4.000000 1.000000 -60.708740 114.000000 50.000000 0.570743 0.276676 0.773112
780.00000000 640.00000000 220.00000000 96 51 182 97.000000 1.000000 4.000000 1.000000 -60.708740 114.000000 50.000000 0.492947 0.286379 0.821578
740.00000000 770.00000000 270.00000000 96 51 182 97.000000 1.000000 4.000000 1.000000 -60.708740 114.000000 50.000000 0.806949 -0.437966 -0.396255
670.00000000 730.00000000 290.00000000 96 51 182 97.000000 1.000000 4.000000 1.000000 -60.708740 114.000000 50.000000 0.937351 -0.322427 -0.131964
690.00000000 760.00000000 300.00000000 96 51 182 97.000000 1.000000 4.000000 1.000000 -60.708740 114.000000 50.000000 0.953632 -0.248132 -0.170339
720.00000000 710.00000000 250.00000000 96 51 182 97.000000 1.000000 4.000000 1.000000 -60.708740 114.000000 50.000000 0.987860 -0.152243 0.030906
730.00000000 670.00000000 250.00000000 96 51 182 97.000000 1.000000 4.000000 1.000000 -60.708740 114.000000 50.000000 0.972087 -0.233732 0.020377
700.00000000 670.00000000 290.00000000 96 51 182 97.000000 1.000000 4.000000 1.000000 -60.708740 114.000000 50.000000 0.880355 -0.443815 0.167340
700.00000000 640.00000000 270.00000000 96 51 182 97.000000 1.000000 4.000000 1.000000 -60.708740 114.000000 50.000000 0.977360 -0.194981 0.082162
970.00000000 570.00000000 400.00000000 96 51 182 97.000000 1.000000 4.000000 1.000000 -60.708740 114.000000 50.000000 0.860294 -0.321648 0.395520
1000.00000000 510.00000000 410.00000000 96 51 182 97.000000 1.000000 4.000000 1.000000 -60.708740 114.000000 50.000000 0.767256 -0.602954 0.218552
930.00000000 540.00000000 420.00000000 96 51 182 97.000000 1.000000 4.000000 1.000000 -60.708740 114.000000 50.000000 0.772801 -0.611864 -0.168528
980.00000000 530.00000000 320.00000000 96 51 182 97.000000 1.000000 4.000000 1.000000 -60.708740 114.000000 50.000000 0.841093 -0.429129 -0.329259
980.00000000 530.00000000 320.00000000 96 51 182 97.000000 1.000000 4.000000 1.000000 -60.708740 114.000000 50.000000 0.841093 -0.429129 -0.329259
1000.00000000 540.00000000 330.00000000 96 51 182 97.000000 1.000000 4.000000 1.000000 -60.708740 114.000000 50.000000 0.864377 -0.497332 -0.074250
1000.00000000 540.00000000 330.00000000 96 51 182 97.000000 1.000000 4.000000 1.000000 -60.708740 114.000000 50.000000 0.864377 -0.497332 -0.074250
980.00000000 520.00000000 320.00000000 96 51 182 97.000000 1.000000 4.000000 1.000000 -60.708740 114.000000 50.000000 0.800157 -0.319745 -0.507456
980.00000000 540.00000000 320.00000000 96 51 182 97.000000 1.000000 4.000000 1.000000 -60.708740 114.000000 50.000000 0.925423 -0.360572 -0.116535
980.00000000 490.00000000 390.00000000 96 51 182 97.000000 1.000000 4.000000 1.000000 -60.708740 114.000000 50.000000 -0.661273 0.680675 0.315277
1000.00000000 500.00000000 390.00000000 96 51 182 97.000000 1.000000 4.000000 1.000000 -60.708740 114.000000 50.000000 0.767387 -0.627320 -0.132616
980.00000000 490.00000000 380.00000000 96 51 182 97.000000 1.000000 4.000000 1.000000 -60.708740 114.000000 50.000000 0.834809 -0.549617 -0.031842
990.00000000 500.00000000 370.00000000 96 51 182 97.000000 1.000000 4.000000 1.000000 -60.708740 114.000000 50.000000 0.928783 -0.177377 -0.325423
980.00000000 490.00000000 390.00000000 96 51 182 97.000000 1.000000 4.000000 1.000000 -60.708740 114.000000 50.000000 -0.661273 0.680675 0.315277
980.00000000 500.00000000 330.00000000 96 51 182 97.000000 1.000000 4.000000 1.000000 -60.708740 114.000000 50.000000 0.769112 -0.536927 -0.346665
960.00000000 490.00000000 360.00000000 96 51 182 97.000000 1.000000 4.000000 1.000000 -60.708740 114.000000 50.000000 -0.532900 0.734181 0.420710
930.00000000 510.00000000 380.00000000 96 51 182 97.000000 1.000000 4.000000 1.000000 -60.708740 114.000000 50.000000 -0.552881 0.800671 0.230754
910.00000000 500.00000000 390.00000000 96 51 182 97.000000 1.000000 4.000000 1.000000 -60.708740 114.000000 50.000000 -0.748302 0.580939 0.320241
900.00000000 500.00000000 370.00000000 96 51 182 97.000000 1.000000 4.000000 1.000000 -60.708740 114.000000 50.000000 0.731771 -0.676488 -0.082924
860.00000000 500.00000000 330.00000000 96 51 182 97.000000 1.000000 4.000000 1.000000 -60.708740 114.000000 50.000000 -0.377077 0.871705 0.312959
980.00000000 460.00000000 410.00000000 96 51 182 97.000000 1.000000 4.000000 1.000000 -60.708740 114.000000 50.000000 0.579327 -0.649853 -0.492008
980.00000000 460.00000000 410.00000000 96 51 182 97.000000 1.000000 4.000000 1.000000 -60.708740 114.000000 50.000000 0.579327 -0.649853 -0.492008
990.00000000 460.00000000 370.00000000 96 51 182 97.000000 1.000000 4.000000 1.000000 -60.708740 114.000000 50.000000 0.844182 -0.383719 -0.374322
980.00000000 470.00000000 400.00000000 96 51 182 97.000000 1.000000 4.000000 1.000000 -60.708740 114.000000 50.000000 -0.493041 0.845860 0.203549
980.00000000 450.00000000 380.00000000 96 51 182 97.000000 1.000000 4.000000 1.000000 -60.708740 114.000000 50.000000 -0.559121 0.685966 0.465656
980.00000000 470.00000000 400.00000000 96 51 182 97.000000 1.000000 4.000000 1.000000 -60.708740 114.000000 50.000000 -0.493041 0.845860 0.203549
960.00000000 450.00000000 400.00000000 96 51 182 97.000000 1.000000 4.000000 1.000000 -60.708740 114.000000 50.000000 -0.602942 0.559030 0.569163
960.00000000 450.00000000 400.00000000 96 51 182 97.000000 1.000000 4.000000 1.000000 -60.708740 114.000000 50.000000 -0.602942 0.559030 0.569163
880.00000000 380.00000000 410.00000000 96 51 182 97.000000 1.000000 4.000000 1.000000 -60.708740 114.000000 50.000000 -0.536479 0.533115 0.654201
890.00000000 320.00000000 450.00000000 96 51 182 97.000000 1.000000 4.000000 1.000000 -60.708740 114.000000 50.000000 -0.384957 0.548768 0.742066
770.00000000 550.00000000 320.00000000 96 51 182 97.000000 1.000000 4.000000 1.000000 -60.708740 114.000000 50.000000 0.602570 0.589068 0.538431
790.00000000 500.00000000 330.00000000 96 51 182 97.000000 1.000000 4.000000 1.000000 -60.708740 114.000000 50.000000 0.396721 0.804686 0.441694
790.00000000 490.00000000 340.00000000 96 51 182 97.000000 1.000000 4.000000 1.000000 -60.708740 114.000000 50.000000 0.270122 0.810365 0.519945
790.00000000 490.00000000 340.00000000 96 51 182 97.000000 1.000000 4.000000 1.000000 -60.708740 114.000000 50.000000 0.270122 0.810365 0.519945
770.00000000 490.00000000 350.00000000 96 51 182 97.000000 1.000000 4.000000 1.000000 -60.708740 114.000000 50.000000 0.433843 0.740667 0.513023
690.00000000 620.00000000 340.00000000 96 51 182 97.000000 1.000000 4.000000 1.000000 -60.708740 114.000000 50.000000 0.990085 -0.058646 0.127642
690.00000000 620.00000000 330.00000000 96 51 182 97.000000 1.000000 4.000000 1.000000 -60.708740 114.000000 50.000000 0.978706 -0.201463 -0.039339
730.00000000 490.00000000 350.00000000 96 51 182 97.000000 1.000000 4.000000 1.000000 -60.708740 114.000000 50.000000 0.531886 0.562279 0.633198
730.00000000 490.00000000 350.00000000 96 51 182 97.000000 1.000000 4.000000 1.000000 -60.708740 114.000000 50.000000 0.531886 0.562279 0.633198
670.00000000 550.00000000 330.00000000 96 51 182 97.000000 1.000000 4.000000 1.000000 -60.708740 114.000000 50.000000 0.835441 0.443583 0.324458
760.00000000 440.00000000 340.00000000 96 51 182 97.000000 1.000000 4.000000 1.000000 -60.708740 114.000000 50.000000 0.353462 0.574986 0.737872
760.00000000 450.00000000 330.00000000 96 51 182 97.000000 1.000000 4.000000 1.000000 -60.708740 114.000000 50.000000 0.440640 0.440640 0.782095
760.00000000 440.00000000 340.00000000 96 51 182 97.000000 1.000000 4.000000 1.000000 -60.708740 114.000000 50.000000 0.353462 0.574986 0.737872
790.00000000 390.00000000 330.00000000 96 51 182 97.000000 1.000000 4.000000 1.000000 -60.708740 114.000000 50.000000 0.181131 0.457982 0.870313
710.00000000 430.00000000 330.00000000 96 51 182 97.000000 1.000000 4.000000 1.000000 -60.708740 114.000000 50.000000 0.295867 0.821852 0.486849
710.00000000 430.00000000 330.00000000 96 51 182 97.000000 1.000000 4.000000 1.000000 -60.708740 114.000000 50.000000 0.295867 0.821852 0.486849
720.00000000 470.00000000 320.00000000 96 51 182 97.000000 1.000000 4.000000 1.000000 -60.708740 114.000000 50.000000 0.286742 0.559226 0.777847
720.00000000 420.00000000 320.00000000 96 51 182 97.000000 1.000000 4.000000 1.000000 -60.708740 114.000000 50.000000 0.632465 0.700752 0.330052
700.00000000 400.00000000 340.00000000 96 51 182 97.000000 1.000000 4.000000 1.000000 -60.708740 114.000000 50.000000 0.398546 0.811497 0.427356
710.00000000 340.00000000 350.00000000 96 51 182 97.000000 1.000000 4.000000 1.000000 -60.708740 114.000000 50.000000 0.651635 0.628303 0.424979
700.00000000 350.00000000 350.00000000 96 51 182 97.000000 1.000000 4.000000 1.000000 -60.708740 114.000000 50.000000 0.694880 0.588741 0.412948
700.00000000 360.00000000 340.00000000 96 51 182 97.000000 1.000000 4.000000 1.000000 -60.708740 114.000000 50.000000 0.586496 0.686184 0.430319
670.00000000 340.00000000 370.00000000 96 51 182 97.000000 1.000000 4.000000 1.000000 -60.708740 114.000000 50.000000 0.529358 0.715214 0.456343
980.00000000 590.00000000 240.00000000 96 51 182 97.000000 1.000000 4.000000 1.000000 -60.708740 114.000000 50.000000 0.807441 -0.567755 -0.160290
960.00000000 630.00000000 250.00000000 96 51 182 97.000000 1.000000 4.000000 1.000000 -60.708740 114.000000 50.000000 -0.635512 0.756274 0.155481
970.00000000 600.00000000 180.00000000 96 51 182 97.000000 1.000000 4.000000 1.000000 -60.708740 114.000000 50.000000 -0.088240 0.797053 0.597428
980.00000000 590.00000000 150.00000000 96 51 182 97.000000 1.000000 4.000000 1.000000 -60.708740 114.000000 50.000000 -0.169045 0.957036 0.235598
990.00000000 560.00000000 190.00000000 96 51 182 97.000000 1.000000 4.000000 1.000000 -60.708740 114.000000 50.000000 -0.669963 0.741084 0.044095
960.00000000 630.00000000 190.00000000 96 51 182 97.000000 1.000000 4.000000 1.000000 -60.708740 114.000000 50.000000 -0.149057 0.751306 0.642901
960.00000000 630.00000000 190.00000000 96 51 182 97.000000 1.000000 4.000000 1.000000 -60.708740 114.000000 50.000000 -0.149057 0.751306 0.642901
940.00000000 630.00000000 170.00000000 96 51 182 97.000000 1.000000 4.000000 1.000000 -60.708740 114.000000 50.000000 -0.217675 0.785791 0.578922
960.00000000 630.00000000 190.00000000 96 51 182 97.000000 1.000000 4.000000 1.000000 -60.708740 114.000000 50.000000 -0.149057 0.751306 0.642901
960.00000000 630.00000000 190.00000000 96 51 182 97.000000 1.000000 4.000000 1.000000 -60.708740 114.000000 50.000000 -0.149057 0.751306 0.642901
980.00000000 540.00000000 310.00000000 96 51 182 97.000000 1.000000 4.000000 1.000000 -60.708740 114.000000 50.000000 0.893975 -0.387340 -0.225335
950.00000000 490.00000000 240.00000000 96 51 182 97.000000 1.000000 4.000000 1.000000 -60.708740 114.000000 50.000000 -0.233836 0.947653 0.217427
940.00000000 490.00000000 250.00000000 96 51 182 97.000000 1.000000 4.000000 1.000000 -60.708740 114.000000 50.000000 0.485083 -0.562293 -0.669717
960.00000000 520.00000000 300.00000000 96 51 182 97.000000 1.000000 4.000000 1.000000 -60.708740 114.000000 50.000000 -0.446058 0.766304 0.462397
990.00000000 540.00000000 310.00000000 96 51 182 97.000000 1.000000 4.000000 1.000000 -60.708740 114.000000 50.000000 0.879784 -0.461922 -0.112283
990.00000000 550.00000000 160.00000000 96 51 182 97.000000 1.000000 4.000000 1.000000 -60.708740 114.000000 50.000000 -0.606638 0.596499 0.525528
980.00000000 510.00000000 230.00000000 96 51 182 97.000000 1.000000 4.000000 1.000000 -60.708740 114.000000 50.000000 -0.189764 0.692714 0.695800
930.00000000 540.00000000 200.00000000 96 51 182 97.000000 1.000000 4.000000 1.000000 -60.708740 114.000000 50.000000 -0.253155 0.862546 0.438095
930.00000000 530.00000000 150.00000000 96 51 182 97.000000 1.000000 4.000000 1.000000 -60.708740 114.000000 50.000000 0.152476 0.741246 0.653686
930.00000000 530.00000000 150.00000000 96 51 182 97.000000 1.000000 4.000000 1.000000 -60.708740 114.000000 50.000000 0.152476 0.741246 0.653686
920.00000000 500.00000000 220.00000000 96 51 182 97.000000 1.000000 4.000000 1.000000 -60.708740 114.000000 50.000000 -0.167674 0.844304 0.508956
930.00000000 510.00000000 210.00000000 96 51 182 97.000000 1.000000 4.000000 1.000000 -60.708740 114.000000 50.000000 -0.274584 0.485564 0.829958
930.00000000 510.00000000 210.00000000 96 51 182 97.000000 1.000000 4.000000 1.000000 -60.708740 114.000000 50.000000 -0.274584 0.485564 0.829958
930.00000000 500.00000000 190.00000000 96 51 182 97.000000 1.000000 4.000000 1.000000 -60.708740 114.000000 50.000000 -0.012313 0.824976 0.565033
910.00000000 560.00000000 280.00000000 96 51 182 97.000000 1.000000 4.000000 1.000000 -60.708740 114.000000 50.000000 -0.213013 0.944128 0.251493
890.00000000 570.00000000 260.00000000 96 51 182 97.000000 1.000000 4.000000 1.000000 -60.708740 114.000000 50.000000 0.105915 0.558591 0.822653
890.00000000 620.00000000 200.00000000 96 51 182 97.000000 1.000000 4.000000 1.000000 -60.708740 114.000000 50.000000 -0.113471 0.623352 0.773664
890.00000000 630.00000000 190.00000000 96 51 182 97.000000 1.000000 4.000000 1.000000 -60.708740 114.000000 50.000000 0.269504 0.677746 0.684125
890.00000000 630.00000000 190.00000000 96 51 182 97.000000 1.000000 4.000000 1.000000 -60.708740 114.000000 50.000000 0.269504 0.677746 0.684125
900.00000000 600.00000000 190.00000000 96 51 182 97.000000 1.000000 4.000000 1.000000 -60.708740 114.000000 50.000000 -0.139523 0.757624 0.637604
880.00000000 570.00000000 220.00000000 96 51 182 97.000000 1.000000 4.000000 1.000000 -60.708740 114.000000 50.000000 0.057209 0.514884 0.855349
910.00000000 560.00000000 200.00000000 96 51 182 97.000000 1.000000 4.000000 1.000000 -60.708740 114.000000 50.000000 -0.044547 0.950752 0.306735
880.00000000 570.00000000 220.00000000 96 51 182 97.000000 1.000000 4.000000 1.000000 -60.708740 114.000000 50.000000 0.057209 0.514884 0.855349
880.00000000 580.00000000 170.00000000 96 51 182 97.000000 1.000000 4.000000 1.000000 -60.708740 114.000000 50.000000 0.189342 0.685018 0.703491
880.00000000 580.00000000 160.00000000 96 51 182 97.000000 1.000000 4.000000 1.000000 -60.708740 114.000000 50.000000 0.017497 0.870830 0.491272
880.00000000 580.00000000 170.00000000 96 51 182 97.000000 1.000000 4.000000 1.000000 -60.708740 114.000000 50.000000 0.189342 0.685018 0.703491
890.00000000 570.00000000 170.00000000 96 51 182 97.000000 1.000000 4.000000 1.000000 -60.708740 114.000000 50.000000 -0.113073 0.600607 0.791509
