//X Y Z R G B PointSourceId ScanDirectionFlag NumberOfReturns ReturnNumber GpsTime Intensity Classification Nx Ny Nz
260.00000000 -8860.00000000 -880.00000000 254 53 102 0.000000 0.000000 0.000000 0.000000 -60.708740 0.000000 64.000000 -0.006866 0.797834 -0.602838
270.00000000 -8890.00000000 -930.00000000 254 53 102 0.000000 0.000000 0.000000 0.000000 -60.708740 0.000000 64.000000 0.321389 -0.538846 0.778688
280.00000000 -8890.00000000 -900.00000000 254 53 102 0.000000 0.000000 0.000000 0.000000 -60.708740 0.000000 64.000000 -0.143207 0.722065 -0.676841
280.00000000 -8880.00000000 -930.00000000 254 53 102 0.000000 0.000000 0.000000 0.000000 -60.708740 0.000000 64.000000 -0.297239 0.816228 -0.495399
290.00000000 -8920.00000000 -940.00000000 254 53 102 0.000000 0.000000 0.000000 0.000000 -60.708740 0.000000 64.000000 -0.277131 0.907641 -0.315255
270.00000000 -8920.00000000 -930.00000000 254 53 102 0.000000 0.000000 0.000000 0.000000 -60.708740 0.000000 64.000000 0.412719 -0.494284 0.765079
430.00000000 -8790.00000000 -690.00000000 254 53 102 0.000000 0.000000 0.000000 0.000000 -60.708740 0.000000 64.000000 0.802590 0.349438 0.483469
390.00000000 -8780.00000000 -590.00000000 254 53 102 0.000000 0.000000 0.000000 0.000000 -60.708740 0.000000 64.000000 0.965207 0.135672 0.223535
390.00000000 -8730.00000000 -640.00000000 254 53 102 0.000000 0.000000 0.000000 0.000000 -60.708740 0.000000 64.000000 0.954292 0.194616 0.226829
370.00000000 -8740.00000000 -690.00000000 254 53 102 0.000000 0.000000 0.000000 0.000000 -60.708740 0.000000 64.000000 0.889800 0.399893 -0.219868
390.00000000 -8770.00000000 -700.00000000 254 53 102 0.000000 0.000000 0.000000 0.000000 -60.708740 0.000000 64.000000 0.598872 0.725463 0.339199
370.00000000 -8790.00000000 -880.00000000 254 53 102 0.000000 0.000000 0.000000 0.000000 -60.708740 0.000000 64.000000 0.666600 0.695237 -0.268867
550.00000000 -8990.00000000 -810.00000000 254 53 102 0.000000 0.000000 0.000000 0.000000 -60.708740 0.000000 64.000000 0.982827 0.115128 0.144213
390.00000000 -9100.00000000 -980.00000000 254 53 102 0.000000 0.000000 0.000000 0.000000 -60.708740 0.000000 64.000000 -0.278182 0.745528 -0.605642
490.00000000 -9050.00000000 -910.00000000 254 53 102 0.000000 0.000000 0.000000 0.000000 -60.708740 0.000000 64.000000 0.930155 -0.019298 0.366659
500.00000000 -9180.00000000 -860.00000000 254 53 102 0.000000 0.000000 0.000000 0.000000 -60.708740 0.000000 64.000000 0.216094 -0.544067 0.810737
500.00000000 -9230.00000000 -960.00000000 254 53 102 0.000000 0.000000 0.000000 0.000000 -60.708740 0.000000 64.000000 0.499732 -0.509761 0.700294
480.00000000 -9210.00000000 -930.00000000 254 53 102 0.000000 0.000000 0.000000 0.000000 -60.708740 0.000000 64.000000 -0.445345 0.774867 -0.448607
430.00000000 -9220.00000000 -990.00000000 254 53 102 0.000000 0.000000 0.000000 0.000000 -60.708740 0.000000 64.000000 0.099290 0.893614 -0.437717
450.00000000 -9250.00000000 -1000.00000000 254 53 102 0.000000 0.000000 0.000000 0.000000 -60.708740 0.000000 64.000000 -0.410316 0.733295 -0.542144
460.00000000 -9230.00000000 -1000.00000000 254 53 102 0.000000 0.000000 0.000000 0.000000 -60.708740 0.000000 64.000000 -0.241644 0.931249 -0.272733
440.00000000 -9220.00000000 -1020.00000000 254 53 102 0.000000 0.000000 0.000000 0.000000 -60.708740 0.000000 64.000000 0.063512 0.981440 -0.180949
400.00000000 -9190.00000000 -1010.00000000 254 53 102 0.000000 0.000000 0.000000 0.000000 -60.708740 0.000000 64.000000 -0.241411 0.874179 -0.421345
400.00000000 -9220.00000000 -1010.00000000 254 53 102 0.000000 0.000000 0.000000 0.000000 -60.708740 0.000000 64.000000 0.315201 0.901208 -0.297443
-340.00000000 -8390.00000000 510.00000000 254 53 102 0.000000 0.000000 0.000000 0.000000 -60.708740 0.000000 56.000000 0.637350 -0.692772 0.337421
-240.00000000 -8430.00000000 340.00000000 254 53 102 0.000000 0.000000 0.000000 0.000000 -60.708740 0.000000 56.000000 0.344160 -0.614921 0.709525
-290.00000000 -8370.00000000 390.00000000 254 53 102 0.000000 0.000000 0.000000 0.000000 -60.708740 0.000000 56.000000 0.846887 -0.096009 0.523035
-270.00000000 -8410.00000000 430.00000000 254 53 102 0.000000 0.000000 0.000000 0.000000 -60.708740 0.000000 56.000000 -0.713039 0.365535 -0.598297
-280.00000000 -8390.00000000 330.00000000 254 53 102 0.000000 0.000000 0.000000 0.000000 -60.708740 0.000000 56.000000 0.828292 -0.381680 0.410187
-320.00000000 -8450.00000000 360.00000000 254 53 102 0.000000 0.000000 0.000000 0.000000 -60.708740 0.000000 56.000000 -0.078923 0.807886 -0.584031
-310.00000000 -8420.00000000 350.00000000 254 53 102 0.000000 0.000000 0.000000 0.000000 -60.708740 0.000000 56.000000 0.504440 -0.451515 0.735986
-340.00000000 -8450.00000000 340.00000000 254 53 102 0.000000 0.000000 0.000000 0.000000 -60.708740 0.000000 56.000000 0.429052 -0.511246 0.744676
-320.00000000 -8440.00000000 320.00000000 254 53 102 0.000000 0.000000 0.000000 0.000000 -60.708740 0.000000 56.000000 -0.483735 0.770392 -0.415328
-90.00000000 -8380.00000000 160.00000000 254 53 102 0.000000 0.000000 0.000000 0.000000 -60.708740 0.000000 56.000000 0.959468 0.208349 0.189770
-130.00000000 -8410.00000000 270.00000000 254 53 102 0.000000 0.000000 0.000000 0.000000 -60.708740 0.000000 56.000000 0.679926 0.258340 0.686266
-130.00000000 -8430.00000000 200.00000000 254 53 102 0.000000 0.000000 0.000000 0.000000 -60.708740 0.000000 56.000000 0.831207 0.274998 0.483188
-60.00000000 -8450.00000000 100.00000000 254 53 102 0.000000 0.000000 0.000000 0.000000 -60.708740 0.000000 56.000000 0.791197 0.412587 0.451419
-40.00000000 -8450.00000000 10.00000000 254 53 102 0.000000 0.000000 0.000000 0.000000 -60.708740 0.000000 56.000000 0.948641 0.312809 0.047241
-90.00000000 -8430.00000000 -10.00000000 254 53 102 0.000000 0.000000 0.000000 0.000000 -60.708740 0.000000 56.000000 0.886935 0.459135 0.050410
-170.00000000 -8360.00000000 110.00000000 254 53 102 0.000000 0.000000 0.000000 0.000000 -60.708740 0.000000 56.000000 0.784992 0.598161 -0.161217
-140.00000000 -8380.00000000 40.00000000 254 53 102 0.000000 0.000000 0.000000 0.000000 -60.708740 0.000000 56.000000 0.956816 0.267595 0.113565
-140.00000000 -8380.00000000 50.00000000 254 53 102 0.000000 0.000000 0.000000 0.000000 -60.708740 0.000000 56.000000 0.908813 0.382583 -0.166402
-140.00000000 -8380.00000000 60.00000000 254 53 102 0.000000 0.000000 0.000000 0.000000 -60.708740 0.000000 56.000000 0.938060 0.327042 -0.114398
-190.00000000 -8400.00000000 270.00000000 254 53 102 0.000000 0.000000 0.000000 0.000000 -60.708740 0.000000 56.000000 0.693136 0.001384 0.720806
-310.00000000 -8430.00000000 280.00000000 254 53 102 0.000000 0.000000 0.000000 0.000000 -60.708740 0.000000 56.000000 -0.365917 0.837054 -0.406749
-320.00000000 -8430.00000000 290.00000000 254 53 102 0.000000 0.000000 0.000000 0.000000 -60.708740 0.000000 56.000000 -0.446390 0.847987 -0.285752
-320.00000000 -8450.00000000 310.00000000 254 53 102 0.000000 0.000000 0.000000 0.000000 -60.708740 0.000000 56.000000 0.472390 -0.549174 0.689388
-310.00000000 -8430.00000000 270.00000000 254 53 102 0.000000 0.000000 0.000000 0.000000 -60.708740 0.000000 56.000000 0.568687 -0.669340 0.478100
-200.00000000 -8370.00000000 20.00000000 254 53 102 0.000000 0.000000 0.000000 0.000000 -60.708740 0.000000 56.000000 0.603887 0.783705 0.145352
-250.00000000 -8430.00000000 110.00000000 254 53 102 0.000000 0.000000 0.000000 0.000000 -60.708740 0.000000 56.000000 0.757229 -0.413777 0.505364
-320.00000000 -8470.00000000 320.00000000 254 53 102 0.000000 0.000000 0.000000 0.000000 -60.708740 0.000000 56.000000 0.051542 0.851147 -0.522390
-90.00000000 -8530.00000000 190.00000000 254 53 102 0.000000 0.000000 0.000000 0.000000 -60.708740 0.000000 56.000000 0.795600 -0.154325 0.585837
-90.00000000 -8570.00000000 170.00000000 254 53 102 0.000000 0.000000 0.000000 0.000000 -60.708740 0.000000 56.000000 0.300650 -0.615769 0.728312
-160.00000000 -8600.00000000 180.00000000 254 53 102 0.000000 0.000000 0.000000 0.000000 -60.708740 0.000000 56.000000 -0.677467 0.631313 -0.377469
-140.00000000 -8580.00000000 210.00000000 254 53 102 0.000000 0.000000 0.000000 0.000000 -60.708740 0.000000 56.000000 -0.807617 0.352038 -0.473101
-60.00000000 -8520.00000000 140.00000000 254 53 102 0.000000 0.000000 0.000000 0.000000 -60.708740 0.000000 56.000000 0.794902 -0.388583 0.465977
-60.00000000 -8500.00000000 70.00000000 254 53 102 0.000000 0.000000 0.000000 0.000000 -60.708740 0.000000 56.000000 0.974966 -0.005880 0.222278
-130.00000000 -8610.00000000 20.00000000 254 53 102 0.000000 0.000000 0.000000 0.000000 -60.708740 0.000000 56.000000 -0.436898 0.860095 -0.263357
-130.00000000 -8620.00000000 10.00000000 254 53 102 0.000000 0.000000 0.000000 0.000000 -60.708740 0.000000 56.000000 -0.435968 0.867410 -0.239858
-130.00000000 -8610.00000000 60.00000000 254 53 102 0.000000 0.000000 0.000000 0.000000 -60.708740 0.000000 56.000000 -0.653529 0.707592 -0.268726
-120.00000000 -8610.00000000 60.00000000 254 53 102 0.000000 0.000000 0.000000 0.000000 -60.708740 0.000000 56.000000 -0.551743 0.741660 -0.381472
-160.00000000 -8610.00000000 20.00000000 254 53 102 0.000000 0.000000 0.000000 0.000000 -60.708740 0.000000 56.000000 0.057073 -0.513657 0.856095
-250.00000000 -8460.00000000 240.00000000 254 53 102 0.000000 0.000000 0.000000 0.000000 -60.708740 0.000000 56.000000 -0.673869 0.453147 -0.583574
-240.00000000 -8610.00000000 180.00000000 254 53 102 0.000000 0.000000 0.000000 0.000000 -60.708740 0.000000 56.000000 -0.112936 0.976710 -0.182435
-250.00000000 -8600.00000000 180.00000000 254 53 102 0.000000 0.000000 0.000000 0.000000 -60.708740 0.000000 56.000000 0.254309 0.803493 -0.538262
-200.00000000 -8620.00000000 150.00000000 254 53 102 0.000000 0.000000 0.000000 0.000000 -60.708740 0.000000 56.000000 -0.280732 0.857536 -0.431069
-310.00000000 -8510.00000000 290.00000000 254 53 102 0.000000 0.000000 0.000000 0.000000 -60.708740 0.000000 56.000000 -0.511105 0.809906 -0.287792
-260.00000000 -8470.00000000 180.00000000 254 53 102 0.000000 0.000000 0.000000 0.000000 -60.708740 0.000000 56.000000 0.675566 -0.394769 0.622710
-270.00000000 -8600.00000000 200.00000000 254 53 102 0.000000 0.000000 0.000000 0.000000 -60.708740 0.000000 56.000000 0.100667 0.975599 -0.195120
-260.00000000 -8610.00000000 230.00000000 254 53 102 0.000000 0.000000 0.000000 0.000000 -60.708740 0.000000 56.000000 0.076424 0.788749 -0.609947
-280.00000000 -8590.00000000 160.00000000 254 53 102 0.000000 0.000000 0.000000 0.000000 -60.708740 0.000000 56.000000 -0.303403 0.841749 -0.446547
-290.00000000 -8560.00000000 220.00000000 254 53 102 0.000000 0.000000 0.000000 0.000000 -60.708740 0.000000 56.000000 0.152923 -0.664686 0.731305
-180.00000000 -8620.00000000 130.00000000 254 53 102 0.000000 0.000000 0.000000 0.000000 -60.708740 0.000000 56.000000 0.230835 -0.670520 0.705066
-240.00000000 -8590.00000000 10.00000000 254 53 102 0.000000 0.000000 0.000000 0.000000 -60.708740 0.000000 56.000000 0.363033 0.888909 -0.279371
-200.00000000 -8620.00000000 30.00000000 254 53 102 0.000000 0.000000 0.000000 0.000000 -60.708740 0.000000 56.000000 0.001377 0.775059 -0.631887
-200.00000000 -8610.00000000 20.00000000 254 53 102 0.000000 0.000000 0.000000 0.000000 -60.708740 0.000000 56.000000 0.253762 -0.616279 0.745524
-190.00000000 -8620.00000000 10.00000000 254 53 102 0.000000 0.000000 0.000000 0.000000 -60.708740 0.000000 56.000000 0.020949 -0.638256 0.769539
-270.00000000 -8490.00000000 50.00000000 254 53 102 0.000000 0.000000 0.000000 0.000000 -60.708740 0.000000 56.000000 0.374040 0.925116 0.065224
-300.00000000 -8570.00000000 120.00000000 254 53 102 0.000000 0.000000 0.000000 0.000000 -60.708740 0.000000 56.000000 0.523848 0.755581 -0.393294
-280.00000000 -8550.00000000 140.00000000 254 53 102 0.000000 0.000000 0.000000 0.000000 -60.708740 0.000000 56.000000 -0.061025 0.816035 -0.574772
-250.00000000 -8630.00000000 190.00000000 254 53 102 0.000000 0.000000 0.000000 0.000000 -60.708740 0.000000 56.000000 -0.050383 0.969557 -0.239624
-250.00000000 -8630.00000000 190.00000000 254 53 102 0.000000 0.000000 0.000000 0.000000 -60.708740 0.000000 56.000000 -0.050383 0.969557 -0.239624
-190.00000000 -8630.00000000 60.00000000 254 53 102 0.000000 0.000000 0.000000 0.000000 -60.708740 0.000000 56.000000 -0.037484 0.973379 -0.226114
-190.00000000 -8630.00000000 10.00000000 254 53 102 0.000000 0.000000 0.000000 0.000000 -60.708740 0.000000 56.000000 0.020867 -0.791571 0.610720
-360.00000000 -8370.00000000 560.00000000 254 53 102 0.000000 0.000000 0.000000 0.000000 -60.708740 0.000000 56.000000 -0.401142 0.774674 -0.488841
-360.00000000 -8550.00000000 350.00000000 254 53 102 0.000000 0.000000 0.000000 0.000000 -60.708740 0.000000 56.000000 -0.111923 0.937190 -0.330376
-60.00000000 -8430.00000000 -90.00000000 254 53 102 0.000000 0.000000 0.000000 0.000000 -60.708740 0.000000 56.000000 0.854340 0.475968 -0.208705
-90.00000000 -8420.00000000 -180.00000000 254 53 102 0.000000 0.000000 0.000000 0.000000 -60.708740 0.000000 56.000000 0.418310 0.900001 0.122535
-80.00000000 -8450.00000000 -110.00000000 254 53 102 0.000000 0.000000 0.000000 0.000000 -60.708740 0.000000 56.000000 0.833199 0.551279 -0.043265
-150.00000000 -8390.00000000 -30.00000000 254 53 102 0.000000 0.000000 0.000000 0.000000 -60.708740 0.000000 56.000000 0.237687 0.959940 -0.148390
-150.00000000 -8390.00000000 -30.00000000 254 53 102 0.000000 0.000000 0.000000 0.000000 -60.708740 0.000000 56.000000 0.237687 0.959940 -0.148390
-110.00000000 -8430.00000000 -70.00000000 254 53 102 0.000000 0.000000 0.000000 0.000000 -60.708740 0.000000 56.000000 0.853647 0.478583 0.205535
-150.00000000 -8380.00000000 -20.00000000 254 53 102 0.000000 0.000000 0.000000 0.000000 -60.708740 0.000000 56.000000 0.674606 0.722900 -0.149409
-150.00000000 -8390.00000000 -80.00000000 254 53 102 0.000000 0.000000 0.000000 0.000000 -60.708740 0.000000 56.000000 0.189363 0.976519 0.102726
-170.00000000 -8390.00000000 -80.00000000 254 53 102 0.000000 0.000000 0.000000 0.000000 -60.708740 0.000000 56.000000 -0.001174 0.973432 -0.228974
-150.00000000 -8380.00000000 -70.00000000 254 53 102 0.000000 0.000000 0.000000 0.000000 -60.708740 0.000000 56.000000 0.199658 0.924656 -0.324267
-140.00000000 -8400.00000000 -30.00000000 254 53 102 0.000000 0.000000 0.000000 0.000000 -60.708740 0.000000 56.000000 0.659209 0.751583 0.023793
-110.00000000 -8400.00000000 -180.00000000 254 53 102 0.000000 0.000000 0.000000 0.000000 -60.708740 0.000000 56.000000 0.327478 0.944791 -0.011292
-50.00000000 -8440.00000000 -200.00000000 254 53 102 0.000000 0.000000 0.000000 0.000000 -60.708740 0.000000 56.000000 0.577914 0.628460 -0.520628
-140.00000000 -8370.00000000 -230.00000000 254 53 102 0.000000 0.000000 0.000000 0.000000 -60.708740 0.000000 56.000000 0.132860 0.973038 -0.188534
-120.00000000 -8400.00000000 -250.00000000 254 53 102 0.000000 0.000000 0.000000 0.000000 -60.708740 0.000000 56.000000 0.310258 0.933557 -0.179477
-150.00000000 -8410.00000000 -190.00000000 254 53 102 0.000000 0.000000 0.000000 0.000000 -60.708740 0.000000 56.000000 -0.040497 0.968254 -0.246666
-170.00000000 -8430.00000000 -280.00000000 254 53 102 0.000000 0.000000 0.000000 0.000000 -60.708740 0.000000 56.000000 -0.222044 0.874765 -0.430677
-140.00000000 -8410.00000000 -320.00000000 254 53 102 0.000000 0.000000 0.000000 0.000000 -60.708740 0.000000 56.000000 0.023343 -0.547877 0.836233
-170.00000000 -8420.00000000 -310.00000000 254 53 102 0.000000 0.000000 0.000000 0.000000 -60.708740 0.000000 56.000000 -0.446469 0.660506 -0.603653
-100.00000000 -8430.00000000 -290.00000000 254 53 102 0.000000 0.000000 0.000000 0.000000 -60.708740 0.000000 56.000000 0.234932 0.906166 -0.351668
-130.00000000 -8400.00000000 -310.00000000 254 53 102 0.000000 0.000000 0.000000 0.000000 -60.708740 0.000000 56.000000 0.241411 0.874179 -0.421345
-230.00000000 -8390.00000000 -30.00000000 254 53 102 0.000000 0.000000 0.000000 0.000000 -60.708740 0.000000 56.000000 -0.266762 0.900507 -0.343401
-190.00000000 -8380.00000000 -220.00000000 254 53 102 0.000000 0.000000 0.000000 0.000000 -60.708740 0.000000 56.000000 -0.031553 0.851940 -0.522688
-220.00000000 -8440.00000000 -250.00000000 254 53 102 0.000000 0.000000 0.000000 0.000000 -60.708740 0.000000 56.000000 0.393344 -0.514122 0.762206
-50.00000000 -8410.00000000 -360.00000000 254 53 102 0.000000 0.000000 0.000000 0.000000 -60.708740 0.000000 56.000000 0.278246 0.853185 -0.441197
-110.00000000 -8440.00000000 -420.00000000 254 53 102 0.000000 0.000000 0.000000 0.000000 -60.708740 0.000000 56.000000 0.265013 -0.541003 0.798175
-140.00000000 -8410.00000000 -370.00000000 254 53 102 0.000000 0.000000 0.000000 0.000000 -60.708740 0.000000 56.000000 -0.508282 0.726826 -0.461924
-120.00000000 -8410.00000000 -370.00000000 254 53 102 0.000000 0.000000 0.000000 0.000000 -60.708740 0.000000 56.000000 0.006432 0.919790 -0.392358
0.00000000 -8620.00000000 -220.00000000 254 53 102 0.000000 0.000000 0.000000 0.000000 -60.708740 0.000000 56.000000 0.836368 -0.303709 0.456343
0.00000000 -8630.00000000 -230.00000000 254 53 102 0.000000 0.000000 0.000000 0.000000 -60.708740 0.000000 56.000000 0.970397 -0.120507 0.209301
230.00000000 -8730.00000000 -680.00000000 254 53 102 0.000000 0.000000 0.000000 0.000000 -60.708740 0.000000 64.000000 0.261018 0.835566 -0.483424
310.00000000 -8640.00000000 -670.00000000 254 53 102 0.000000 0.000000 0.000000 0.000000 -60.708740 0.000000 64.000000 0.308554 0.873982 -0.375432
0.00000000 -8540.00000000 -370.00000000 254 53 102 0.000000 0.000000 0.000000 0.000000 -60.708740 0.000000 56.000000 0.133237 0.956405 -0.259878
10.00000000 -8510.00000000 -500.00000000 254 53 102 0.000000 0.000000 0.000000 0.000000 -60.708740 0.000000 56.000000 0.229819 0.812851 -0.535217
70.00000000 -8590.00000000 -560.00000000 254 53 102 0.000000 0.000000 0.000000 0.000000 -60.708740 0.000000 56.000000 -0.278461 0.868858 -0.409322
30.00000000 -8630.00000000 -460.00000000 254 53 102 0.000000 0.000000 0.000000 0.000000 -60.708740 0.000000 56.000000 -0.162259 0.942195 -0.293157
0.00000000 -8660.00000000 -510.00000000 254 53 102 0.000000 0.000000 0.000000 0.000000 -60.708740 0.000000 56.000000 -0.406287 0.608602 -0.681568
30.00000000 -8660.00000000 -520.00000000 254 53 102 0.000000 0.000000 0.000000 0.000000 -60.708740 0.000000 56.000000 -0.514051 0.717009 -0.470797
130.00000000 -8670.00000000 -630.00000000 254 53 102 0.000000 0.000000 0.000000 0.000000 -60.708740 0.000000 56.000000 0.386192 0.876883 -0.286237
50.00000000 -8710.00000000 -650.00000000 254 53 102 0.000000 0.000000 0.000000 0.000000 -60.708740 0.000000 56.000000 0.180062 -0.495543 0.849715
50.00000000 -8720.00000000 -650.00000000 254 53 102 0.000000 0.000000 0.000000 0.000000 -60.708740 0.000000 56.000000 0.287149 -0.399578 0.870564
30.00000000 -8720.00000000 -650.00000000 254 53 102 0.000000 0.000000 0.000000 0.000000 -60.708740 0.000000 56.000000 0.647231 -0.456573 0.610437
30.00000000 -8720.00000000 -650.00000000 254 53 102 0.000000 0.000000 0.000000 0.000000 -60.708740 0.000000 56.000000 0.647231 -0.456573 0.610437
-50.00000000 -8530.00000000 -30.00000000 254 53 102 0.000000 0.000000 0.000000 0.000000 -60.708740 0.000000 56.000000 0.970397 -0.120507 0.209301
-30.00000000 -8490.00000000 -120.00000000 254 53 102 0.000000 0.000000 0.000000 0.000000 -60.708740 0.000000 56.000000 0.693792 0.693792 0.193149
-30.00000000 -8530.00000000 -150.00000000 254 53 102 0.000000 0.000000 0.000000 0.000000 -60.708740 0.000000 56.000000 0.946686 0.155305 0.282250
-60.00000000 -8470.00000000 -160.00000000 254 53 102 0.000000 0.000000 0.000000 0.000000 -60.708740 0.000000 56.000000 0.718999 0.676436 0.159609
-10.00000000 -8520.00000000 -120.00000000 254 53 102 0.000000 0.000000 0.000000 0.000000 -60.708740 0.000000 56.000000 0.801104 0.512389 0.309337
-20.00000000 -8540.00000000 -180.00000000 254 53 102 0.000000 0.000000 0.000000 0.000000 -60.708740 0.000000 56.000000 0.943202 0.326543 0.061146
-60.00000000 -8470.00000000 -160.00000000 254 53 102 0.000000 0.000000 0.000000 0.000000 -60.708740 0.000000 56.000000 0.718999 0.676436 0.159609
-40.00000000 -8590.00000000 -100.00000000 254 53 102 0.000000 0.000000 0.000000 0.000000 -60.708740 0.000000 56.000000 0.765945 -0.070680 0.639009
-30.00000000 -8580.00000000 -80.00000000 254 53 102 0.000000 0.000000 0.000000 0.000000 -60.708740 0.000000 56.000000 0.951984 0.028848 0.304785
-160.00000000 -8620.00000000 -80.00000000 254 53 102 0.000000 0.000000 0.000000 0.000000 -60.708740 0.000000 56.000000 0.102295 0.837093 -0.537411
-110.00000000 -8580.00000000 -50.00000000 254 53 102 0.000000 0.000000 0.000000 0.000000 -60.708740 0.000000 56.000000 0.699924 -0.156382 0.696887
-130.00000000 -8590.00000000 -90.00000000 254 53 102 0.000000 0.000000 0.000000 0.000000 -60.708740 0.000000 56.000000 -0.032187 0.799081 -0.600361
-100.00000000 -8620.00000000 -170.00000000 254 53 102 0.000000 0.000000 0.000000 0.000000 -60.708740 0.000000 56.000000 -0.138877 0.852264 -0.504341
-110.00000000 -8600.00000000 -140.00000000 254 53 102 0.000000 0.000000 0.000000 0.000000 -60.708740 0.000000 56.000000 -0.415676 0.740988 -0.527399
-40.00000000 -8510.00000000 -210.00000000 254 53 102 0.000000 0.000000 0.000000 0.000000 -60.708740 0.000000 56.000000 0.731560 0.681775 0.001383
-30.00000000 -8520.00000000 -250.00000000 254 53 102 0.000000 0.000000 0.000000 0.000000 -60.708740 0.000000 56.000000 0.738120 0.645662 0.195702
-40.00000000 -8510.00000000 -290.00000000 254 53 102 0.000000 0.000000 0.000000 0.000000 -60.708740 0.000000 56.000000 0.646701 0.663156 -0.376831
-50.00000000 -8460.00000000 -290.00000000 254 53 102 0.000000 0.000000 0.000000 0.000000 -60.708740 0.000000 56.000000 0.506091 0.796654 -0.330476
-20.00000000 -8550.00000000 -200.00000000 254 53 102 0.000000 0.000000 0.000000 0.000000 -60.708740 0.000000 56.000000 0.924592 0.306298 0.226518
-10.00000000 -8610.00000000 -330.00000000 254 53 102 0.000000 0.000000 0.000000 0.000000 -60.708740 0.000000 56.000000 0.351832 0.875773 -0.330509
-70.00000000 -8620.00000000 -300.00000000 254 53 102 0.000000 0.000000 0.000000 0.000000 -60.708740 0.000000 56.000000 0.856616 -0.419849 0.299892
-120.00000000 -8630.00000000 -150.00000000 254 53 102 0.000000 0.000000 0.000000 0.000000 -60.708740 0.000000 56.000000 -0.149262 0.948017 -0.281043
-140.00000000 -8630.00000000 -110.00000000 254 53 102 0.000000 0.000000 0.000000 0.000000 -60.708740 0.000000 56.000000 0.086470 0.854781 -0.511735
-150.00000000 -8630.00000000 -110.00000000 254 53 102 0.000000 0.000000 0.000000 0.000000 -60.708740 0.000000 56.000000 0.035030 0.972390 -0.230716
-110.00000000 -8630.00000000 -150.00000000 254 53 102 0.000000 0.000000 0.000000 0.000000 -60.708740 0.000000 56.000000 0.191555 0.767752 -0.611443
-230.00000000 -8540.00000000 -160.00000000 254 53 102 0.000000 0.000000 0.000000 0.000000 -60.708740 0.000000 56.000000 0.806815 -0.277294 0.521688
-210.00000000 -8600.00000000 -100.00000000 254 53 102 0.000000 0.000000 0.000000 0.000000 -60.708740 0.000000 56.000000 0.768542 0.635886 0.070654
-210.00000000 -8610.00000000 -120.00000000 254 53 102 0.000000 0.000000 0.000000 0.000000 -60.708740 0.000000 56.000000 0.363233 0.918601 -0.155671
-200.00000000 -8570.00000000 -150.00000000 254 53 102 0.000000 0.000000 0.000000 0.000000 -60.708740 0.000000 56.000000 0.944790 0.318424 -0.077313
-260.00000000 -8490.00000000 -170.00000000 254 53 102 0.000000 0.000000 0.000000 0.000000 -60.708740 0.000000 56.000000 0.574743 -0.167445 0.801020
-270.00000000 -8490.00000000 -170.00000000 254 53 102 0.000000 0.000000 0.000000 0.000000 -60.708740 0.000000 56.000000 0.464792 -0.228611 0.855398
-240.00000000 -8520.00000000 -230.00000000 254 53 102 0.000000 0.000000 0.000000 0.000000 -60.708740 0.000000 56.000000 0.808532 -0.193378 0.555771
-240.00000000 -8500.00000000 -260.00000000 254 53 102 0.000000 0.000000 0.000000 0.000000 -60.708740 0.000000 56.000000 0.865994 -0.297829 0.401687
-250.00000000 -8520.00000000 -220.00000000 254 53 102 0.000000 0.000000 0.000000 0.000000 -60.708740 0.000000 56.000000 0.635109 -0.189149 0.748906
-210.00000000 -8500.00000000 -320.00000000 254 53 102 0.000000 0.000000 0.000000 0.000000 -60.708740 0.000000 56.000000 0.614069 -0.165268 0.771755
-240.00000000 -8500.00000000 -320.00000000 254 53 102 0.000000 0.000000 0.000000 0.000000 -60.708740 0.000000 56.000000 0.445539 -0.359919 0.819728
-220.00000000 -8570.00000000 -250.00000000 254 53 102 0.000000 0.000000 0.000000 0.000000 -60.708740 0.000000 56.000000 0.903778 0.044316 0.425702
-180.00000000 -8630.00000000 -30.00000000 254 53 102 0.000000 0.000000 0.000000 0.000000 -60.708740 0.000000 56.000000 -0.237901 0.893974 -0.379754
-30.00000000 -8470.00000000 -450.00000000 254 53 102 0.000000 0.000000 0.000000 0.000000 -60.708740 0.000000 56.000000 0.268596 0.796364 -0.541905
-170.00000000 -8470.00000000 -430.00000000 254 53 102 0.000000 0.000000 0.000000 0.000000 -60.708740 0.000000 56.000000 0.548528 -0.429211 0.717561
-170.00000000 -8480.00000000 -430.00000000 254 53 102 0.000000 0.000000 0.000000 0.000000 -60.708740 0.000000 56.000000 -0.500722 0.622109 -0.601878
-20.00000000 -8650.00000000 -430.00000000 254 53 102 0.000000 0.000000 0.000000 0.000000 -60.708740 0.000000 56.000000 0.612684 -0.602557 0.511414
-170.00000000 -8660.00000000 -440.00000000 254 53 102 0.000000 0.000000 0.000000 0.000000 -60.708740 0.000000 56.000000 0.891089 -0.096523 0.443446
-170.00000000 -8640.00000000 -430.00000000 254 53 102 0.000000 0.000000 0.000000 0.000000 -60.708740 0.000000 56.000000 0.846766 -0.078010 0.526215
-30.00000000 -8690.00000000 -650.00000000 254 53 102 0.000000 0.000000 0.000000 0.000000 -60.708740 0.000000 56.000000 0.609085 -0.642644 0.464784
-30.00000000 -8780.00000000 -630.00000000 254 53 102 0.000000 0.000000 0.000000 0.000000 -60.708740 0.000000 56.000000 0.657202 0.311646 0.686267
-200.00000000 -8530.00000000 -450.00000000 254 53 102 0.000000 0.000000 0.000000 0.000000 -60.708740 0.000000 56.000000 0.277747 -0.519402 0.808133
280.00000000 -8760.00000000 -710.00000000 254 53 102 0.000000 0.000000 0.000000 0.000000 -60.708740 0.000000 64.000000 0.288121 0.931824 -0.220658
110.00000000 -8700.00000000 -830.00000000 254 53 102 0.000000 0.000000 0.000000 0.000000 -60.708740 0.000000 56.000000 -0.560284 0.580597 -0.590753
120.00000000 -8760.00000000 -830.00000000 254 53 102 0.000000 0.000000 0.000000 0.000000 -60.708740 0.000000 56.000000 -0.100805 0.793288 -0.600444
100.00000000 -8740.00000000 -830.00000000 254 53 102 0.000000 0.000000 0.000000 0.000000 -60.708740 0.000000 56.000000 -0.543127 0.686846 -0.482965
60.00000000 -8650.00000000 -700.00000000 254 53 102 0.000000 0.000000 0.000000 0.000000 -60.708740 0.000000 56.000000 0.081568 -0.562392 0.822838
60.00000000 -8700.00000000 -740.00000000 254 53 102 0.000000 0.000000 0.000000 0.000000 -60.708740 0.000000 56.000000 0.273391 -0.564166 0.779086
60.00000000 -8710.00000000 -700.00000000 254 53 102 0.000000 0.000000 0.000000 0.000000 -60.708740 0.000000 56.000000 0.302466 -0.350619 0.886330
0.00000000 -8750.00000000 -730.00000000 254 53 102 0.000000 0.000000 0.000000 0.000000 -60.708740 0.000000 56.000000 0.571137 -0.075865 0.817341
50.00000000 -8710.00000000 -740.00000000 254 53 102 0.000000 0.000000 0.000000 0.000000 -60.708740 0.000000 56.000000 0.632142 -0.645485 0.428656
0.00000000 -8720.00000000 -740.00000000 254 53 102 0.000000 0.000000 0.000000 0.000000 -60.708740 0.000000 56.000000 0.601764 -0.347360 0.719181
50.00000000 -8760.00000000 -780.00000000 254 53 102 0.000000 0.000000 0.000000 0.000000 -60.708740 0.000000 56.000000 0.378721 -0.515255 0.768819
50.00000000 -8750.00000000 -780.00000000 254 53 102 0.000000 0.000000 0.000000 0.000000 -60.708740 0.000000 56.000000 0.410792 -0.327084 0.851038
70.00000000 -8740.00000000 -840.00000000 254 53 102 0.000000 0.000000 0.000000 0.000000 -60.708740 0.000000 56.000000 -0.471274 0.739156 -0.481196
60.00000000 -8760.00000000 -780.00000000 254 53 102 0.000000 0.000000 0.000000 0.000000 -60.708740 0.000000 56.000000 0.624318 -0.129632 0.770340
90.00000000 -8720.00000000 -870.00000000 254 53 102 0.000000 0.000000 0.000000 0.000000 -60.708740 0.000000 56.000000 0.621150 -0.614416 0.486483
320.00000000 -8810.00000000 -760.00000000 254 53 102 0.000000 0.000000 0.000000 0.000000 -60.708740 0.000000 64.000000 0.864644 0.446607 -0.230071
300.00000000 -8830.00000000 -840.00000000 254 53 102 0.000000 0.000000 0.000000 0.000000 -60.708740 0.000000 64.000000 0.406726 0.908584 0.095132
280.00000000 -8900.00000000 -950.00000000 254 53 102 0.000000 0.000000 0.000000 0.000000 -60.708740 0.000000 64.000000 0.462703 -0.354580 0.812514
280.00000000 -8900.00000000 -950.00000000 254 53 102 0.000000 0.000000 0.000000 0.000000 -60.708740 0.000000 64.000000 0.462703 -0.354580 0.812514
360.00000000 -8740.00000000 -670.00000000 254 53 102 0.000000 0.000000 0.000000 0.000000 -60.708740 0.000000 64.000000 0.706380 0.700481 0.101754
400.00000000 -8780.00000000 -610.00000000 254 53 102 0.000000 0.000000 0.000000 0.000000 -60.708740 0.000000 64.000000 0.935854 0.352366 0.003789
410.00000000 -8760.00000000 -690.00000000 254 53 102 0.000000 0.000000 0.000000 0.000000 -60.708740 0.000000 64.000000 0.755039 0.641409 -0.136056
380.00000000 -8760.00000000 -670.00000000 254 53 102 0.000000 0.000000 0.000000 0.000000 -60.708740 0.000000 64.000000 0.835518 0.527929 0.152316
360.00000000 -8680.00000000 -760.00000000 254 53 102 0.000000 0.000000 0.000000 0.000000 -60.708740 0.000000 64.000000 0.764603 0.634960 -0.110492
350.00000000 -8750.00000000 -730.00000000 254 53 102 0.000000 0.000000 0.000000 0.000000 -60.708740 0.000000 64.000000 0.720927 0.624590 0.300253
340.00000000 -8760.00000000 -800.00000000 254 53 102 0.000000 0.000000 0.000000 0.000000 -60.708740 0.000000 64.000000 0.479006 0.858651 -0.182408
430.00000000 -9080.00000000 -990.00000000 254 53 102 0.000000 0.000000 0.000000 0.000000 -60.708740 0.000000 64.000000 -0.428170 0.829481 -0.358652
430.00000000 -9210.00000000 -970.00000000 254 53 102 0.000000 0.000000 0.000000 0.000000 -60.708740 0.000000 64.000000 -0.180243 0.807306 -0.561934
470.00000000 -9210.00000000 -990.00000000 254 53 102 0.000000 0.000000 0.000000 0.000000 -60.708740 0.000000 64.000000 -0.362111 0.811957 -0.457823
380.00000000 -9230.00000000 -1030.00000000 254 53 102 0.000000 0.000000 0.000000 0.000000 -60.708740 0.000000 64.000000 0.118318 0.828223 -0.547766
400.00000000 -9220.00000000 -1020.00000000 254 53 102 0.000000 0.000000 0.000000 0.000000 -60.708740 0.000000 64.000000 0.304385 0.723116 -0.620043
-250.00000000 -8430.00000000 390.00000000 254 53 102 0.000000 0.000000 0.000000 0.000000 -60.708740 0.000000 56.000000 -0.587835 0.684419 -0.431301
-340.00000000 -8390.00000000 480.00000000 254 53 102 0.000000 0.000000 0.000000 0.000000 -60.708740 0.000000 56.000000 0.393588 -0.527505 0.752879
-270.00000000 -8420.00000000 460.00000000 254 53 102 0.000000 0.000000 0.000000 0.000000 -60.708740 0.000000 56.000000 0.655631 -0.391397 0.645722
-280.00000000 -8450.00000000 330.00000000 254 53 102 0.000000 0.000000 0.000000 0.000000 -60.708740 0.000000 56.000000 -0.403518 0.719745 -0.564925
-100.00000000 -8360.00000000 160.00000000 254 53 102 0.000000 0.000000 0.000000 0.000000 -60.708740 0.000000 56.000000 0.688495 0.254822 0.678999
-170.00000000 -8400.00000000 290.00000000 254 53 102 0.000000 0.000000 0.000000 0.000000 -60.708740 0.000000 56.000000 0.591488 -0.094464 0.800761
-150.00000000 -8420.00000000 310.00000000 254 53 102 0.000000 0.000000 0.000000 0.000000 -60.708740 0.000000 56.000000 0.608524 -0.168444 0.775451
-170.00000000 -8400.00000000 290.00000000 254 53 102 0.000000 0.000000 0.000000 0.000000 -60.708740 0.000000 56.000000 0.591488 -0.094464 0.800761
-70.00000000 -8420.00000000 80.00000000 254 53 102 0.000000 0.000000 0.000000 0.000000 -60.708740 0.000000 56.000000 0.696974 0.203349 0.687660
-80.00000000 -8390.00000000 120.00000000 254 53 102 0.000000 0.000000 0.000000 0.000000 -60.708740 0.000000 56.000000 0.910058 0.157102 0.383555
-100.00000000 -8420.00000000 90.00000000 254 53 102 0.000000 0.000000 0.000000 0.000000 -60.708740 0.000000 56.000000 0.907259 -0.057968 0.416557
-210.00000000 -8390.00000000 280.00000000 254 53 102 0.000000 0.000000 0.000000 0.000000 -60.708740 0.000000 56.000000 0.923832 -0.051544 0.379313
-280.00000000 -8450.00000000 230.00000000 254 53 102 0.000000 0.000000 0.000000 0.000000 -60.708740 0.000000 56.000000 0.609239 -0.538358 0.582236
-250.00000000 -8450.00000000 130.00000000 254 53 102 0.000000 0.000000 0.000000 0.000000 -60.708740 0.000000 56.000000 -0.341976 0.750403 -0.565639
-220.00000000 -8380.00000000 20.00000000 254 53 102 0.000000 0.000000 0.000000 0.000000 -60.708740 0.000000 56.000000 0.470142 0.722656 -0.506690
-210.00000000 -8430.00000000 40.00000000 254 53 102 0.000000 0.000000 0.000000 0.000000 -60.708740 0.000000 56.000000 0.733611 0.580707 0.352979
-320.00000000 -8470.00000000 320.00000000 254 53 102 0.000000 0.000000 0.000000 0.000000 -60.708740 0.000000 56.000000 0.051542 0.851147 -0.522390
-60.00000000 -8530.00000000 110.00000000 254 53 102 0.000000 0.000000 0.000000 0.000000 -60.708740 0.000000 56.000000 -0.626286 0.582396 -0.518248
-50.00000000 -8530.00000000 100.00000000 254 53 102 0.000000 0.000000 0.000000 0.000000 -60.708740 0.000000 56.000000 0.600035 -0.091531 0.794720
-40.00000000 -8570.00000000 100.00000000 254 53 102 0.000000 0.000000 0.000000 0.000000 -60.708740 0.000000 56.000000 0.914766 -0.229052 0.332773
-90.00000000 -8600.00000000 120.00000000 254 53 102 0.000000 0.000000 0.000000 0.000000 -60.708740 0.000000 56.000000 -0.636197 0.602625 -0.481764
-20.00000000 -8560.00000000 100.00000000 254 53 102 0.000000 0.000000 0.000000 0.000000 -60.708740 0.000000 56.000000 0.950762 -0.131644 0.280574
-40.00000000 -8570.00000000 60.00000000 254 53 102 0.000000 0.000000 0.000000 0.000000 -60.708740 0.000000 56.000000 0.642838 -0.548352 0.534854
-80.00000000 -8590.00000000 -10.00000000 254 53 102 0.000000 0.000000 0.000000 0.000000 -60.708740 0.000000 56.000000 -0.630903 0.667333 -0.395763
-50.00000000 -8590.00000000 10.00000000 254 53 102 0.000000 0.000000 0.000000 0.000000 -60.708740 0.000000 56.000000 -0.646523 0.636551 -0.420489
-200.00000000 -8610.00000000 180.00000000 254 53 102 0.000000 0.000000 0.000000 0.000000 -60.708740 0.000000 56.000000 -0.494012 0.756609 -0.428362
-320.00000000 -8600.00000000 250.00000000 254 53 102 0.000000 0.000000 0.000000 0.000000 -60.708740 0.000000 56.000000 0.203549 0.845860 -0.493041
-340.00000000 -8590.00000000 260.00000000 254 53 102 0.000000 0.000000 0.000000 0.000000 -60.708740 0.000000 56.000000 -0.229054 0.903086 -0.363277
-270.00000000 -8610.00000000 230.00000000 254 53 102 0.000000 0.000000 0.000000 0.000000 -60.708740 0.000000 56.000000 0.247768 0.670708 -0.699115
-260.00000000 -8580.00000000 190.00000000 254 53 102 0.000000 0.000000 0.000000 0.000000 -60.708740 0.000000 56.000000 0.144579 0.932189 -0.331843
-280.00000000 -8590.00000000 150.00000000 254 53 102 0.000000 0.000000 0.000000 0.000000 -60.708740 0.000000 56.000000 -0.345550 0.882737 -0.318389
-250.00000000 -8610.00000000 130.00000000 254 53 102 0.000000 0.000000 0.000000 0.000000 -60.708740 0.000000 56.000000 -0.142043 0.776005 -0.614524
-230.00000000 -8600.00000000 50.00000000 254 53 102 0.000000 0.000000 0.000000 0.000000 -60.708740 0.000000 56.000000 -0.005367 0.994991 -0.099821
-360.00000000 -8390.00000000 530.00000000 254 53 102 0.000000 0.000000 0.000000 0.000000 -60.708740 0.000000 56.000000 0.150670 -0.813021 0.562402
-370.00000000 -8450.00000000 480.00000000 254 53 102 0.000000 0.000000 0.000000 0.000000 -60.708740 0.000000 56.000000 -0.461200 0.612138 -0.642325
-390.00000000 -8500.00000000 230.00000000 254 53 102 0.000000 0.000000 0.000000 0.000000 -60.708740 0.000000 56.000000 -0.097920 0.975485 -0.197080
-350.00000000 -8480.00000000 310.00000000 254 53 102 0.000000 0.000000 0.000000 0.000000 -60.708740 0.000000 56.000000 -0.232545 0.846584 -0.478768
-90.00000000 -8410.00000000 -70.00000000 254 53 102 0.000000 0.000000 0.000000 0.000000 -60.708740 0.000000 56.000000 0.795890 0.598009 -0.094576
-40.00000000 -8450.00000000 -150.00000000 254 53 102 0.000000 0.000000 0.000000 0.000000 -60.708740 0.000000 56.000000 0.909164 0.396446 0.127479
-140.00000000 -8410.00000000 -40.00000000 254 53 102 0.000000 0.000000 0.000000 0.000000 -60.708740 0.000000 56.000000 0.517797 0.826338 0.221477
-140.00000000 -8410.00000000 -60.00000000 254 53 102 0.000000 0.000000 0.000000 0.000000 -60.708740 0.000000 56.000000 0.261238 0.948848 -0.177317
-110.00000000 -8410.00000000 -90.00000000 254 53 102 0.000000 0.000000 0.000000 0.000000 -60.708740 0.000000 56.000000 0.534339 0.844778 -0.028846
-110.00000000 -8390.00000000 -160.00000000 254 53 102 0.000000 0.000000 0.000000 0.000000 -60.708740 0.000000 56.000000 0.016449 0.940146 -0.340376
-120.00000000 -8400.00000000 -110.00000000 254 53 102 0.000000 0.000000 0.000000 0.000000 -60.708740 0.000000 56.000000 0.334994 0.934457 0.120706
-70.00000000 -8440.00000000 -240.00000000 254 53 102 0.000000 0.000000 0.000000 0.000000 -60.708740 0.000000 56.000000 0.634102 0.760023 -0.142411
-110.00000000 -8410.00000000 -200.00000000 254 53 102 0.000000 0.000000 0.000000 0.000000 -60.708740 0.000000 56.000000 -0.043603 0.808757 -0.586525
-110.00000000 -8440.00000000 -240.00000000 254 53 102 0.000000 0.000000 0.000000 0.000000 -60.708740 0.000000 56.000000 -0.174394 0.845141 -0.505296
-110.00000000 -8390.00000000 -200.00000000 254 53 102 0.000000 0.000000 0.000000 0.000000 -60.708740 0.000000 56.000000 0.294859 0.955540 0.001223
-160.00000000 -8410.00000000 -190.00000000 254 53 102 0.000000 0.000000 0.000000 0.000000 -60.708740 0.000000 56.000000 -0.027791 0.970263 -0.240451
-150.00000000 -8390.00000000 -310.00000000 254 53 102 0.000000 0.000000 0.000000 0.000000 -60.708740 0.000000 56.000000 0.006885 0.794495 -0.607231
-140.00000000 -8430.00000000 -330.00000000 254 53 102 0.000000 0.000000 0.000000 0.000000 -60.708740 0.000000 56.000000 -0.333733 0.820887 -0.463430
-120.00000000 -8400.00000000 -310.00000000 254 53 102 0.000000 0.000000 0.000000 0.000000 -60.708740 0.000000 56.000000 0.325014 0.871283 -0.367739
-170.00000000 -8410.00000000 -300.00000000 254 53 102 0.000000 0.000000 0.000000 0.000000 -60.708740 0.000000 56.000000 0.035404 -0.709490 0.703826
-200.00000000 -8440.00000000 -180.00000000 254 53 102 0.000000 0.000000 0.000000 0.000000 -60.708740 0.000000 56.000000 0.541082 -0.707568 0.454509
-190.00000000 -8390.00000000 -190.00000000 254 53 102 0.000000 0.000000 0.000000 0.000000 -60.708740 0.000000 56.000000 -0.194017 0.872338 -0.448758
-200.00000000 -8380.00000000 -220.00000000 254 53 102 0.000000 0.000000 0.000000 0.000000 -60.708740 0.000000 56.000000 -0.205460 0.925279 -0.318817
-190.00000000 -8430.00000000 -310.00000000 254 53 102 0.000000 0.000000 0.000000 0.000000 -60.708740 0.000000 56.000000 0.098497 -0.665955 0.739460
-110.00000000 -8430.00000000 -380.00000000 254 53 102 0.000000 0.000000 0.000000 0.000000 -60.708740 0.000000 56.000000 0.085538 0.961346 -0.261721
100.00000000 -8560.00000000 -450.00000000 254 53 102 0.000000 0.000000 0.000000 0.000000 -60.708740 0.000000 56.000000 0.735815 0.671704 -0.085966
10.00000000 -8520.00000000 -430.00000000 254 53 102 0.000000 0.000000 0.000000 0.000000 -60.708740 0.000000 56.000000 0.168191 0.876058 -0.451923
20.00000000 -8540.00000000 -460.00000000 254 53 102 0.000000 0.000000 0.000000 0.000000 -60.708740 0.000000 56.000000 0.311124 0.916008 -0.253241
20.00000000 -8600.00000000 -430.00000000 254 53 102 0.000000 0.000000 0.000000 0.000000 -60.708740 0.000000 56.000000 -0.070662 -0.751320 0.656144
20.00000000 -8600.00000000 -510.00000000 254 53 102 0.000000 0.000000 0.000000 0.000000 -60.708740 0.000000 56.000000 0.327630 -0.569720 0.753709
20.00000000 -8730.00000000 -610.00000000 254 53 102 0.000000 0.000000 0.000000 0.000000 -60.708740 0.000000 56.000000 0.860831 -0.034214 0.507740
10.00000000 -8710.00000000 -630.00000000 254 53 102 0.000000 0.000000 0.000000 0.000000 -60.708740 0.000000 56.000000 0.763730 -0.469359 0.443192
-70.00000000 -8460.00000000 -90.00000000 254 53 102 0.000000 0.000000 0.000000 0.000000 -60.708740 0.000000 56.000000 0.565033 0.824976 0.012313
-20.00000000 -8510.00000000 -80.00000000 254 53 102 0.000000 0.000000 0.000000 0.000000 -60.708740 0.000000 56.000000 0.857729 0.241379 0.453913
-50.00000000 -8470.00000000 -170.00000000 254 53 102 0.000000 0.000000 0.000000 0.000000 -60.708740 0.000000 56.000000 0.526613 0.803281 -0.278240
-60.00000000 -8470.00000000 -150.00000000 254 53 102 0.000000 0.000000 0.000000 0.000000 -60.708740 0.000000 56.000000 0.612366 0.722236 0.321532
-60.00000000 -8470.00000000 -170.00000000 254 53 102 0.000000 0.000000 0.000000 0.000000 -60.708740 0.000000 56.000000 0.706549 0.638952 -0.304186
-20.00000000 -8560.00000000 -90.00000000 254 53 102 0.000000 0.000000 0.000000 0.000000 -60.708740 0.000000 56.000000 0.837737 -0.260732 0.479809
-160.00000000 -8460.00000000 -180.00000000 254 53 102 0.000000 0.000000 0.000000 0.000000 -60.708740 0.000000 56.000000 0.132684 0.776720 -0.615711
-50.00000000 -8620.00000000 -290.00000000 254 53 102 0.000000 0.000000 0.000000 0.000000 -60.708740 0.000000 56.000000 0.131539 0.975897 -0.174133
-110.00000000 -8630.00000000 -120.00000000 254 53 102 0.000000 0.000000 0.000000 0.000000 -60.708740 0.000000 56.000000 -0.421787 0.845131 -0.328403
-80.00000000 -8650.00000000 -230.00000000 254 53 102 0.000000 0.000000 0.000000 0.000000 -60.708740 0.000000 56.000000 -0.329637 0.797816 -0.504806
-240.00000000 -8560.00000000 -140.00000000 254 53 102 0.000000 0.000000 0.000000 0.000000 -60.708740 0.000000 56.000000 0.979755 0.005784 0.200115
-210.00000000 -8600.00000000 -110.00000000 254 53 102 0.000000 0.000000 0.000000 0.000000 -60.708740 0.000000 56.000000 0.793530 0.584945 -0.167775
-230.00000000 -8590.00000000 -180.00000000 254 53 102 0.000000 0.000000 0.000000 0.000000 -60.708740 0.000000 56.000000 0.979496 0.156473 0.126903
-210.00000000 -8500.00000000 -220.00000000 254 53 102 0.000000 0.000000 0.000000 0.000000 -60.708740 0.000000 56.000000 0.654229 -0.212896 0.725713
-190.00000000 -8540.00000000 -330.00000000 254 53 102 0.000000 0.000000 0.000000 0.000000 -60.708740 0.000000 56.000000 0.743932 -0.168868 0.646567
-180.00000000 -8650.00000000 -50.00000000 254 53 102 0.000000 0.000000 0.000000 0.000000 -60.708740 0.000000 56.000000 0.412975 0.668389 -0.618633
-210.00000000 -8640.00000000 -260.00000000 254 53 102 0.000000 0.000000 0.000000 0.000000 -60.708740 0.000000 56.000000 0.714259 0.474508 0.514467
-90.00000000 -8490.00000000 -370.00000000 254 53 102 0.000000 0.000000 0.000000 0.000000 -60.708740 0.000000 56.000000 -0.135907 0.763170 -0.631744
-90.00000000 -8670.00000000 -360.00000000 254 53 102 0.000000 0.000000 0.000000 0.000000 -60.708740 0.000000 56.000000 0.992893 0.075854 0.091704
-30.00000000 -8660.00000000 -480.00000000 254 53 102 0.000000 0.000000 0.000000 0.000000 -60.708740 0.000000 56.000000 -0.610859 0.705845 -0.358655
-10.00000000 -8660.00000000 -470.00000000 254 53 102 0.000000 0.000000 0.000000 0.000000 -60.708740 0.000000 56.000000 0.279229 -0.356876 0.891443
-110.00000000 -8630.00000000 -360.00000000 254 53 102 0.000000 0.000000 0.000000 0.000000 -60.708740 0.000000 56.000000 0.811014 -0.484069 0.328532
-170.00000000 -8680.00000000 -570.00000000 254 53 102 0.000000 0.000000 0.000000 0.000000 -60.708740 0.000000 56.000000 0.825001 -0.009577 0.565050
-240.00000000 -8510.00000000 -370.00000000 254 53 102 0.000000 0.000000 0.000000 0.000000 -60.708740 0.000000 56.000000 0.713180 -0.086048 0.695679
330.00000000 -8670.00000000 -720.00000000 254 53 102 0.000000 0.000000 0.000000 0.000000 -60.708740 0.000000 64.000000 0.243771 0.915946 -0.318778
120.00000000 -8680.00000000 -840.00000000 254 53 102 0.000000 0.000000 0.000000 0.000000 -60.708740 0.000000 56.000000 0.342738 -0.522958 0.780414
130.00000000 -8650.00000000 -790.00000000 254 53 102 0.000000 0.000000 0.000000 0.000000 -60.708740 0.000000 56.000000 0.061766 0.934379 -0.350885
80.00000000 -8750.00000000 -780.00000000 254 53 102 0.000000 0.000000 0.000000 0.000000 -60.708740 0.000000 56.000000 -0.402303 0.640705 -0.653949
100.00000000 -8740.00000000 -830.00000000 254 53 102 0.000000 0.000000 0.000000 0.000000 -60.708740 0.000000 56.000000 -0.543127 0.686846 -0.482965
60.00000000 -8690.00000000 -730.00000000 254 53 102 0.000000 0.000000 0.000000 0.000000 -60.708740 0.000000 56.000000 -0.041225 0.706506 -0.706506
30.00000000 -8760.00000000 -830.00000000 254 53 102 0.000000 0.000000 0.000000 0.000000 -60.708740 0.000000 56.000000 0.616984 -0.070471 0.783814
70.00000000 -8730.00000000 -780.00000000 254 53 102 0.000000 0.000000 0.000000 0.000000 -60.708740 0.000000 56.000000 0.473023 -0.543224 0.693655
230.00000000 -8800.00000000 -900.00000000 254 53 102 0.000000 0.000000 0.000000 0.000000 -60.708740 0.000000 64.000000 -0.029496 -0.655928 0.754247
260.00000000 -8910.00000000 -900.00000000 254 53 102 0.000000 0.000000 0.000000 0.000000 -60.708740 0.000000 64.000000 0.404532 -0.260164 0.876737
590.00000000 -9150.00000000 -930.00000000 254 53 102 0.000000 0.000000 0.000000 0.000000 -60.708740 0.000000 64.000000 0.711888 -0.634754 0.300504
470.00000000 -9200.00000000 -920.00000000 254 53 102 0.000000 0.000000 0.000000 0.000000 -60.708740 0.000000 64.000000 -0.237060 0.742578 -0.626403
-200.00000000 -8390.00000000 390.00000000 254 53 102 0.000000 0.000000 0.000000 0.000000 -60.708740 0.000000 56.000000 0.782449 -0.064370 0.619379
-150.00000000 -8410.00000000 260.00000000 254 53 102 0.000000 0.000000 0.000000 0.000000 -60.708740 0.000000 56.000000 0.744881 -0.239930 0.622564
-120.00000000 -8390.00000000 220.00000000 254 53 102 0.000000 0.000000 0.000000 0.000000 -60.708740 0.000000 56.000000 0.717770 0.346678 0.603838
-190.00000000 -8400.00000000 250.00000000 254 53 102 0.000000 0.000000 0.000000 0.000000 -60.708740 0.000000 56.000000 0.798942 0.250740 0.546645
-260.00000000 -8440.00000000 110.00000000 254 53 102 0.000000 0.000000 0.000000 0.000000 -60.708740 0.000000 56.000000 0.653787 -0.559669 0.509248
-270.00000000 -8430.00000000 120.00000000 254 53 102 0.000000 0.000000 0.000000 0.000000 -60.708740 0.000000 56.000000 0.615555 -0.585198 0.527859
-60.00000000 -8570.00000000 30.00000000 254 53 102 0.000000 0.000000 0.000000 0.000000 -60.708740 0.000000 56.000000 0.426343 -0.228879 0.875126
-150.00000000 -8610.00000000 0.00000000 254 53 102 0.000000 0.000000 0.000000 0.000000 -60.708740 0.000000 56.000000 -0.245464 0.935570 -0.253880
-260.00000000 -8490.00000000 230.00000000 254 53 102 0.000000 0.000000 0.000000 0.000000 -60.708740 0.000000 56.000000 -0.482703 0.786209 -0.385840
-210.00000000 -8620.00000000 170.00000000 254 53 102 0.000000 0.000000 0.000000 0.000000 -60.708740 0.000000 56.000000 -0.084784 0.890929 -0.446159
-200.00000000 -8610.00000000 180.00000000 254 53 102 0.000000 0.000000 0.000000 0.000000 -60.708740 0.000000 56.000000 -0.494012 0.756609 -0.428362
-390.00000000 -8390.00000000 590.00000000 254 53 102 0.000000 0.000000 0.000000 0.000000 -60.708740 0.000000 56.000000 -0.397468 0.855252 -0.332512
-60.00000000 -8450.00000000 -20.00000000 254 53 102 0.000000 0.000000 0.000000 0.000000 -60.708740 0.000000 56.000000 0.912061 0.144749 0.383656
-90.00000000 -8430.00000000 -240.00000000 254 53 102 0.000000 0.000000 0.000000 0.000000 -60.708740 0.000000 56.000000 0.471043 0.863826 -0.178672
-70.00000000 -8440.00000000 -350.00000000 254 53 102 0.000000 0.000000 0.000000 0.000000 -60.708740 0.000000 56.000000 0.215663 0.907523 -0.360404
-190.00000000 -8410.00000000 -230.00000000 254 53 102 0.000000 0.000000 0.000000 0.000000 -60.708740 0.000000 56.000000 -0.294221 0.937914 -0.183715
-210.00000000 -8420.00000000 -190.00000000 254 53 102 0.000000 0.000000 0.000000 0.000000 -60.708740 0.000000 56.000000 -0.474324 0.832011 -0.287705
