//X Y Z R G B PointSourceId ScanDirectionFlag NumberOfReturns ReturnNumber GpsTime Intensity Classification Nx Ny Nz
-5050.00000000 -11010.00000000 240.00000000 30 39 221 0.000000 0.000000 0.000000 0.000000 -60.708740 0.000000 170.000000 0.513109 0.845381 0.148493
-5020.00000000 -11040.00000000 310.00000000 30 39 221 0.000000 0.000000 0.000000 0.000000 -60.708740 0.000000 170.000000 0.677876 0.732567 -0.061887
-5010.00000000 -11060.00000000 150.00000000 30 39 221 0.000000 0.000000 0.000000 0.000000 -60.708740 0.000000 170.000000 0.853776 0.509396 0.107619
-5010.00000000 -11050.00000000 160.00000000 30 39 221 0.000000 0.000000 0.000000 0.000000 -60.708740 0.000000 170.000000 0.950699 0.309384 0.021294
-5040.00000000 -11030.00000000 210.00000000 30 39 221 0.000000 0.000000 0.000000 0.000000 -60.708740 0.000000 170.000000 0.365472 0.925228 0.101897
-5050.00000000 -11040.00000000 170.00000000 30 39 221 0.000000 0.000000 0.000000 0.000000 -60.708740 0.000000 170.000000 0.253326 0.946207 0.201292
-5010.00000000 -11090.00000000 270.00000000 30 39 221 0.000000 0.000000 0.000000 0.000000 -60.708740 0.000000 170.000000 0.884957 0.424134 -0.192254
-4980.00000000 -11150.00000000 270.00000000 30 39 221 0.000000 0.000000 0.000000 0.000000 -60.708740 0.000000 170.000000 0.922811 -0.163837 -0.348680
-4980.00000000 -11130.00000000 270.00000000 30 39 221 0.000000 0.000000 0.000000 0.000000 -60.708740 0.000000 170.000000 0.973172 -0.132533 -0.188071
-5040.00000000 -11090.00000000 290.00000000 30 39 221 0.000000 0.000000 0.000000 0.000000 -60.708740 0.000000 170.000000 0.743560 0.595811 0.303526
-5020.00000000 -11080.00000000 250.00000000 30 39 221 0.000000 0.000000 0.000000 0.000000 -60.708740 0.000000 170.000000 0.889648 0.363335 0.276613
-5050.00000000 -11100.00000000 240.00000000 30 39 221 0.000000 0.000000 0.000000 0.000000 -60.708740 0.000000 170.000000 0.878645 0.246979 0.408637
-5030.00000000 -11080.00000000 270.00000000 30 39 221 0.000000 0.000000 0.000000 0.000000 -60.708740 0.000000 170.000000 0.975352 0.179044 0.128962
-5050.00000000 -11120.00000000 260.00000000 30 39 221 0.000000 0.000000 0.000000 0.000000 -60.708740 0.000000 170.000000 0.975940 0.159107 0.149085
-5000.00000000 -11080.00000000 210.00000000 30 39 221 0.000000 0.000000 0.000000 0.000000 -60.708740 0.000000 170.000000 0.860035 0.508889 -0.037035
-5010.00000000 -11080.00000000 200.00000000 30 39 221 0.000000 0.000000 0.000000 0.000000 -60.708740 0.000000 170.000000 0.820759 0.564001 -0.090875
-5050.00000000 -11100.00000000 160.00000000 30 39 221 0.000000 0.000000 0.000000 0.000000 -60.708740 0.000000 170.000000 0.900744 0.415837 -0.125456
-4970.00000000 -11050.00000000 20.00000000 30 39 221 0.000000 0.000000 0.000000 0.000000 -60.708740 0.000000 170.000000 0.809633 0.568972 -0.144100
-4950.00000000 -11100.00000000 60.00000000 30 39 221 0.000000 0.000000 0.000000 0.000000 -60.708740 0.000000 170.000000 0.998107 -0.061278 0.005193
-5040.00000000 -11020.00000000 70.00000000 30 39 221 0.000000 0.000000 0.000000 0.000000 -60.708740 0.000000 170.000000 0.833965 0.540989 -0.108778
-5020.00000000 -11020.00000000 40.00000000 30 39 221 0.000000 0.000000 0.000000 0.000000 -60.708740 0.000000 170.000000 0.645045 0.577678 0.500205
-5030.00000000 -11020.00000000 -10.00000000 30 39 221 0.000000 0.000000 0.000000 0.000000 -60.708740 0.000000 170.000000 0.488362 0.871978 0.034009
-5020.00000000 -10990.00000000 0.00000000 30 39 221 0.000000 0.000000 0.000000 0.000000 -60.708740 0.000000 170.000000 0.677667 0.711474 -0.185936
-5040.00000000 -11020.00000000 0.00000000 30 39 221 0.000000 0.000000 0.000000 0.000000 -60.708740 0.000000 170.000000 0.371295 0.911879 0.174978
-5020.00000000 -11040.00000000 20.00000000 30 39 221 0.000000 0.000000 0.000000 0.000000 -60.708740 0.000000 170.000000 0.668929 0.694352 -0.265347
-5050.00000000 -11060.00000000 10.00000000 30 39 221 0.000000 0.000000 0.000000 0.000000 -60.708740 0.000000 170.000000 0.821908 0.562813 -0.087805
-5030.00000000 -11040.00000000 0.00000000 30 39 221 0.000000 0.000000 0.000000 0.000000 -60.708740 0.000000 170.000000 0.894341 0.376954 -0.240955
-5010.00000000 -11090.00000000 100.00000000 30 39 221 0.000000 0.000000 0.000000 0.000000 -60.708740 0.000000 170.000000 0.982942 0.139381 -0.119989
-5010.00000000 -11080.00000000 100.00000000 30 39 221 0.000000 0.000000 0.000000 0.000000 -60.708740 0.000000 170.000000 0.918936 0.330131 -0.215800
-5040.00000000 -11070.00000000 140.00000000 30 39 221 0.000000 0.000000 0.000000 0.000000 -60.708740 0.000000 170.000000 0.718846 0.642677 -0.265005
-5020.00000000 -11070.00000000 100.00000000 30 39 221 0.000000 0.000000 0.000000 0.000000 -60.708740 0.000000 170.000000 0.848213 0.513583 0.129487
-5020.00000000 -11080.00000000 80.00000000 30 39 221 0.000000 0.000000 0.000000 0.000000 -60.708740 0.000000 170.000000 0.791851 0.610700 0.004117
-5020.00000000 -11070.00000000 100.00000000 30 39 221 0.000000 0.000000 0.000000 0.000000 -60.708740 0.000000 170.000000 0.848213 0.513583 0.129487
-5050.00000000 -11100.00000000 70.00000000 30 39 221 0.000000 0.000000 0.000000 0.000000 -60.708740 0.000000 170.000000 0.944482 -0.066439 0.321775
-5030.00000000 -11150.00000000 70.00000000 30 39 221 0.000000 0.000000 0.000000 0.000000 -60.708740 0.000000 170.000000 -0.619302 0.763041 0.185026
-5050.00000000 -11080.00000000 30.00000000 30 39 221 0.000000 0.000000 0.000000 0.000000 -60.708740 0.000000 170.000000 0.862574 0.499533 -0.080207
-5040.00000000 -11160.00000000 640.00000000 30 39 221 0.000000 0.000000 0.000000 0.000000 -60.708740 0.000000 170.000000 0.986062 -0.076759 0.147614
-5050.00000000 -11160.00000000 640.00000000 30 39 221 0.000000 0.000000 0.000000 0.000000 -60.708740 0.000000 170.000000 0.902151 0.092564 0.421372
-5040.00000000 -11160.00000000 500.00000000 30 39 221 0.000000 0.000000 0.000000 0.000000 -60.708740 0.000000 170.000000 0.971959 -0.109676 -0.208007
-5040.00000000 -11180.00000000 550.00000000 30 39 221 0.000000 0.000000 0.000000 0.000000 -60.708740 0.000000 170.000000 0.939381 -0.083471 -0.332559
-5050.00000000 -11200.00000000 550.00000000 30 39 221 0.000000 0.000000 0.000000 0.000000 -60.708740 0.000000 170.000000 -0.644218 0.754315 -0.126463
-5050.00000000 -11240.00000000 600.00000000 30 39 221 0.000000 0.000000 0.000000 0.000000 -60.708740 0.000000 170.000000 -0.541471 0.837078 -0.078165
-4950.00000000 -11180.00000000 350.00000000 30 39 221 0.000000 0.000000 0.000000 0.000000 -60.708740 0.000000 170.000000 0.862694 -0.493581 -0.110162
-5050.00000000 -11170.00000000 450.00000000 30 39 221 0.000000 0.000000 0.000000 0.000000 -60.708740 0.000000 170.000000 0.739243 -0.665760 -0.101407
-5070.00000000 -11060.00000000 510.00000000 30 39 221 0.000000 0.000000 0.000000 0.000000 -60.708740 0.000000 170.000000 0.061906 0.986997 0.148342
-5060.00000000 -11060.00000000 540.00000000 30 39 221 0.000000 0.000000 0.000000 0.000000 -60.708740 0.000000 170.000000 0.210991 0.959413 0.187106
-5070.00000000 -11050.00000000 510.00000000 30 39 221 0.000000 0.000000 0.000000 0.000000 -60.708740 0.000000 170.000000 0.159259 0.979013 -0.127161
-5060.00000000 -11150.00000000 570.00000000 30 39 221 0.000000 0.000000 0.000000 0.000000 -60.708740 0.000000 170.000000 0.853085 0.495292 0.164112
-5060.00000000 -11150.00000000 580.00000000 30 39 221 0.000000 0.000000 0.000000 0.000000 -60.708740 0.000000 170.000000 0.961320 0.169645 -0.216988
-5060.00000000 -11140.00000000 610.00000000 30 39 221 0.000000 0.000000 0.000000 0.000000 -60.708740 0.000000 170.000000 0.675806 0.691633 0.254812
-5070.00000000 -11140.00000000 580.00000000 30 39 221 0.000000 0.000000 0.000000 0.000000 -60.708740 0.000000 170.000000 0.764459 0.569753 -0.301634
-5070.00000000 -11150.00000000 570.00000000 30 39 221 0.000000 0.000000 0.000000 0.000000 -60.708740 0.000000 170.000000 0.889349 0.422187 -0.175548
-5130.00000000 -11130.00000000 600.00000000 30 39 221 0.000000 0.000000 0.000000 0.000000 -60.708740 0.000000 170.000000 -0.424995 0.883813 -0.195586
-5140.00000000 -11120.00000000 590.00000000 30 39 221 0.000000 0.000000 0.000000 0.000000 -60.708740 0.000000 170.000000 -0.441986 0.864362 0.239849
-5130.00000000 -11120.00000000 580.00000000 30 39 221 0.000000 0.000000 0.000000 0.000000 -60.708740 0.000000 170.000000 -0.524368 0.851247 0.020430
-5110.00000000 -11110.00000000 570.00000000 30 39 221 0.000000 0.000000 0.000000 0.000000 -60.708740 0.000000 170.000000 0.289521 0.955293 0.059945
-5080.00000000 -11090.00000000 560.00000000 30 39 221 0.000000 0.000000 0.000000 0.000000 -60.708740 0.000000 170.000000 0.420780 0.839995 0.342568
-5060.00000000 -11140.00000000 530.00000000 30 39 221 0.000000 0.000000 0.000000 0.000000 -60.708740 0.000000 170.000000 0.986175 0.062149 0.153613
-5090.00000000 -11110.00000000 540.00000000 30 39 221 0.000000 0.000000 0.000000 0.000000 -60.708740 0.000000 170.000000 0.207435 0.964115 0.165687
-5060.00000000 -11140.00000000 530.00000000 30 39 221 0.000000 0.000000 0.000000 0.000000 -60.708740 0.000000 170.000000 0.986175 0.062149 0.153613
-5060.00000000 -11140.00000000 510.00000000 30 39 221 0.000000 0.000000 0.000000 0.000000 -60.708740 0.000000 170.000000 0.974219 0.121934 0.189816
-5090.00000000 -11120.00000000 490.00000000 30 39 221 0.000000 0.000000 0.000000 0.000000 -60.708740 0.000000 170.000000 0.355433 0.926322 0.124882
-5100.00000000 -11120.00000000 520.00000000 30 39 221 0.000000 0.000000 0.000000 0.000000 -60.708740 0.000000 170.000000 0.096721 0.985116 0.142096
-5130.00000000 -11090.00000000 520.00000000 30 39 221 0.000000 0.000000 0.000000 0.000000 -60.708740 0.000000 170.000000 -0.527009 0.800739 0.284742
-5130.00000000 -11080.00000000 510.00000000 30 39 221 0.000000 0.000000 0.000000 0.000000 -60.708740 0.000000 170.000000 -0.581303 0.801336 0.141237
-5130.00000000 -11120.00000000 560.00000000 30 39 221 0.000000 0.000000 0.000000 0.000000 -60.708740 0.000000 170.000000 -0.511987 0.845443 0.151973
-5120.00000000 -11110.00000000 560.00000000 30 39 221 0.000000 0.000000 0.000000 0.000000 -60.708740 0.000000 170.000000 0.104292 0.994541 0.003226
-5140.00000000 -11150.00000000 560.00000000 30 39 221 0.000000 0.000000 0.000000 0.000000 -60.708740 0.000000 170.000000 0.979828 -0.174926 0.096637
-5130.00000000 -11140.00000000 550.00000000 30 39 221 0.000000 0.000000 0.000000 0.000000 -60.708740 0.000000 170.000000 -0.388766 0.918779 -0.068606
-5130.00000000 -11110.00000000 510.00000000 30 39 221 0.000000 0.000000 0.000000 0.000000 -60.708740 0.000000 170.000000 -0.226632 0.968566 0.102554
-5140.00000000 -11150.00000000 520.00000000 30 39 221 0.000000 0.000000 0.000000 0.000000 -60.708740 0.000000 170.000000 0.954763 -0.065185 -0.290135
-5150.00000000 -11140.00000000 530.00000000 30 39 221 0.000000 0.000000 0.000000 0.000000 -60.708740 0.000000 170.000000 0.917294 -0.386877 0.094327
-5150.00000000 -11130.00000000 500.00000000 30 39 221 0.000000 0.000000 0.000000 0.000000 -60.708740 0.000000 170.000000 0.674752 -0.661745 -0.326808
-5160.00000000 -11120.00000000 560.00000000 30 39 221 0.000000 0.000000 0.000000 0.000000 -60.708740 0.000000 170.000000 0.789988 -0.590603 -0.164644
-5070.00000000 -11050.00000000 410.00000000 30 39 221 0.000000 0.000000 0.000000 0.000000 -60.708740 0.000000 170.000000 0.290524 0.956360 -0.031172
-5070.00000000 -11050.00000000 390.00000000 30 39 221 0.000000 0.000000 0.000000 0.000000 -60.708740 0.000000 170.000000 0.358234 0.929798 0.084527
-5060.00000000 -11060.00000000 390.00000000 30 39 221 0.000000 0.000000 0.000000 0.000000 -60.708740 0.000000 170.000000 0.453001 0.891390 0.014613
-5060.00000000 -11060.00000000 390.00000000 30 39 221 0.000000 0.000000 0.000000 0.000000 -60.708740 0.000000 170.000000 0.453001 0.891390 0.014613
-5090.00000000 -11050.00000000 330.00000000 30 39 221 0.000000 0.000000 0.000000 0.000000 -60.708740 0.000000 170.000000 -0.180151 0.956804 0.228192
-5100.00000000 -11050.00000000 320.00000000 30 39 221 0.000000 0.000000 0.000000 0.000000 -60.708740 0.000000 170.000000 0.082602 0.877822 0.471812
-5090.00000000 -11060.00000000 320.00000000 30 39 221 0.000000 0.000000 0.000000 0.000000 -60.708740 0.000000 170.000000 0.211666 0.976083 -0.049590
-5140.00000000 -11060.00000000 340.00000000 30 39 221 0.000000 0.000000 0.000000 0.000000 -60.708740 0.000000 170.000000 -0.439591 0.880643 0.176713
-5110.00000000 -11050.00000000 340.00000000 30 39 221 0.000000 0.000000 0.000000 0.000000 -60.708740 0.000000 170.000000 0.058202 0.997896 -0.028572
-5120.00000000 -11050.00000000 320.00000000 30 39 221 0.000000 0.000000 0.000000 0.000000 -60.708740 0.000000 170.000000 -0.048583 0.962931 0.265336
-5120.00000000 -11060.00000000 340.00000000 30 39 221 0.000000 0.000000 0.000000 0.000000 -60.708740 0.000000 170.000000 -0.201028 0.979274 0.024688
-5070.00000000 -11090.00000000 440.00000000 30 39 221 0.000000 0.000000 0.000000 0.000000 -60.708740 0.000000 170.000000 0.735317 0.663138 0.139846
-5060.00000000 -11100.00000000 440.00000000 30 39 221 0.000000 0.000000 0.000000 0.000000 -60.708740 0.000000 170.000000 0.468752 0.868871 -0.159171
-5080.00000000 -11090.00000000 420.00000000 30 39 221 0.000000 0.000000 0.000000 0.000000 -60.708740 0.000000 170.000000 0.143127 0.939188 0.312154
-5090.00000000 -11080.00000000 410.00000000 30 39 221 0.000000 0.000000 0.000000 0.000000 -60.708740 0.000000 170.000000 0.287471 0.837551 0.464616
-5070.00000000 -11090.00000000 410.00000000 30 39 221 0.000000 0.000000 0.000000 0.000000 -60.708740 0.000000 170.000000 0.260630 0.957388 0.124421
-5090.00000000 -11080.00000000 430.00000000 30 39 221 0.000000 0.000000 0.000000 0.000000 -60.708740 0.000000 170.000000 0.295062 0.914257 -0.277620
-5080.00000000 -11080.00000000 420.00000000 30 39 221 0.000000 0.000000 0.000000 0.000000 -60.708740 0.000000 170.000000 0.287149 0.870564 0.399578
-5090.00000000 -11080.00000000 430.00000000 30 39 221 0.000000 0.000000 0.000000 0.000000 -60.708740 0.000000 170.000000 0.295062 0.914257 -0.277620
-5080.00000000 -11120.00000000 480.00000000 30 39 221 0.000000 0.000000 0.000000 0.000000 -60.708740 0.000000 170.000000 0.484713 0.750895 0.448565
-5090.00000000 -11110.00000000 420.00000000 30 39 221 0.000000 0.000000 0.000000 0.000000 -60.708740 0.000000 170.000000 0.543089 0.786925 -0.292920
-5130.00000000 -11090.00000000 460.00000000 30 39 221 0.000000 0.000000 0.000000 0.000000 -60.708740 0.000000 170.000000 -0.077204 0.916961 0.391435
-5120.00000000 -11090.00000000 470.00000000 30 39 221 0.000000 0.000000 0.000000 0.000000 -60.708740 0.000000 170.000000 -0.439324 0.898320 0.003934
-5110.00000000 -11080.00000000 420.00000000 30 39 221 0.000000 0.000000 0.000000 0.000000 -60.708740 0.000000 170.000000 0.034754 0.992171 0.119957
-5120.00000000 -11100.00000000 420.00000000 30 39 221 0.000000 0.000000 0.000000 0.000000 -60.708740 0.000000 170.000000 -0.034098 0.981778 -0.186949
-5110.00000000 -11070.00000000 420.00000000 30 39 221 0.000000 0.000000 0.000000 0.000000 -60.708740 0.000000 170.000000 -0.258814 0.867256 0.425303
-5100.00000000 -11090.00000000 360.00000000 30 39 221 0.000000 0.000000 0.000000 0.000000 -60.708740 0.000000 170.000000 0.368955 0.914613 0.165394
-5100.00000000 -11090.00000000 370.00000000 30 39 221 0.000000 0.000000 0.000000 0.000000 -60.708740 0.000000 170.000000 0.052312 0.986951 0.152286
-5070.00000000 -11080.00000000 380.00000000 30 39 221 0.000000 0.000000 0.000000 0.000000 -60.708740 0.000000 170.000000 0.454246 0.874898 0.167969
-5100.00000000 -11080.00000000 350.00000000 30 39 221 0.000000 0.000000 0.000000 0.000000 -60.708740 0.000000 170.000000 0.181855 0.888905 0.420448
-5070.00000000 -11140.00000000 360.00000000 30 39 221 0.000000 0.000000 0.000000 0.000000 -60.708740 0.000000 170.000000 0.965816 0.180684 -0.185884
-5070.00000000 -11130.00000000 380.00000000 30 39 221 0.000000 0.000000 0.000000 0.000000 -60.708740 0.000000 170.000000 0.965696 -0.001197 0.259673
-5080.00000000 -11150.00000000 400.00000000 30 39 221 0.000000 0.000000 0.000000 0.000000 -60.708740 0.000000 170.000000 0.941187 -0.325234 -0.091596
-5070.00000000 -11140.00000000 370.00000000 30 39 221 0.000000 0.000000 0.000000 0.000000 -60.708740 0.000000 170.000000 0.948924 0.285079 0.135178
-5080.00000000 -11150.00000000 380.00000000 30 39 221 0.000000 0.000000 0.000000 0.000000 -60.708740 0.000000 170.000000 0.780749 -0.567104 0.262344
-5080.00000000 -11140.00000000 390.00000000 30 39 221 0.000000 0.000000 0.000000 0.000000 -60.708740 0.000000 170.000000 0.937990 -0.282092 0.201494
-5070.00000000 -11140.00000000 350.00000000 30 39 221 0.000000 0.000000 0.000000 0.000000 -60.708740 0.000000 170.000000 0.982930 0.134864 0.125144
-5070.00000000 -11150.00000000 350.00000000 30 39 221 0.000000 0.000000 0.000000 0.000000 -60.708740 0.000000 170.000000 0.983930 -0.138837 0.112277
-5080.00000000 -11150.00000000 320.00000000 30 39 221 0.000000 0.000000 0.000000 0.000000 -60.708740 0.000000 170.000000 0.819240 -0.570214 -0.060842
-5070.00000000 -11140.00000000 350.00000000 30 39 221 0.000000 0.000000 0.000000 0.000000 -60.708740 0.000000 170.000000 0.982930 0.134864 0.125144
-5130.00000000 -11090.00000000 340.00000000 30 39 221 0.000000 0.000000 0.000000 0.000000 -60.708740 0.000000 170.000000 -0.558723 0.821308 -0.115246
-5160.00000000 -11060.00000000 360.00000000 30 39 221 0.000000 0.000000 0.000000 0.000000 -60.708740 0.000000 170.000000 -0.380944 0.890846 0.247539
-5150.00000000 -11060.00000000 330.00000000 30 39 221 0.000000 0.000000 0.000000 0.000000 -60.708740 0.000000 170.000000 -0.624493 0.778830 -0.058591
-5150.00000000 -11060.00000000 330.00000000 30 39 221 0.000000 0.000000 0.000000 0.000000 -60.708740 0.000000 170.000000 -0.624493 0.778830 -0.058591
-5160.00000000 -11090.00000000 410.00000000 30 39 221 0.000000 0.000000 0.000000 0.000000 -60.708740 0.000000 170.000000 0.883693 -0.467837 0.014662
-5150.00000000 -11100.00000000 420.00000000 30 39 221 0.000000 0.000000 0.000000 0.000000 -60.708740 0.000000 170.000000 0.834141 -0.551056 -0.023361
-5160.00000000 -11100.00000000 410.00000000 30 39 221 0.000000 0.000000 0.000000 0.000000 -60.708740 0.000000 170.000000 0.875906 -0.480863 -0.039504
-5160.00000000 -11140.00000000 450.00000000 30 39 221 0.000000 0.000000 0.000000 0.000000 -60.708740 0.000000 170.000000 0.872476 -0.402098 -0.277675
-5160.00000000 -11150.00000000 460.00000000 30 39 221 0.000000 0.000000 0.000000 0.000000 -60.708740 0.000000 170.000000 0.991423 -0.014433 -0.129895
-5170.00000000 -11150.00000000 460.00000000 30 39 221 0.000000 0.000000 0.000000 0.000000 -60.708740 0.000000 170.000000 0.960768 -0.051492 -0.272532
-5160.00000000 -11110.00000000 450.00000000 30 39 221 0.000000 0.000000 0.000000 0.000000 -60.708740 0.000000 170.000000 0.950956 -0.282502 -0.125998
-5160.00000000 -11120.00000000 470.00000000 30 39 221 0.000000 0.000000 0.000000 0.000000 -60.708740 0.000000 170.000000 0.955562 -0.258439 -0.141810
-5160.00000000 -11120.00000000 470.00000000 30 39 221 0.000000 0.000000 0.000000 0.000000 -60.708740 0.000000 170.000000 0.955562 -0.258439 -0.141810
-5160.00000000 -11110.00000000 440.00000000 30 39 221 0.000000 0.000000 0.000000 0.000000 -60.708740 0.000000 170.000000 0.814567 -0.556546 0.163514
-5160.00000000 -11110.00000000 430.00000000 30 39 221 0.000000 0.000000 0.000000 0.000000 -60.708740 0.000000 170.000000 0.836064 -0.524211 -0.161867
-5160.00000000 -11120.00000000 430.00000000 30 39 221 0.000000 0.000000 0.000000 0.000000 -60.708740 0.000000 170.000000 0.932938 -0.359020 -0.027023
-5160.00000000 -11100.00000000 330.00000000 30 39 221 0.000000 0.000000 0.000000 0.000000 -60.708740 0.000000 170.000000 0.795638 -0.581253 -0.170602
-5170.00000000 -11070.00000000 340.00000000 30 39 221 0.000000 0.000000 0.000000 0.000000 -60.708740 0.000000 170.000000 -0.476403 0.878997 0.020130
-5160.00000000 -11100.00000000 340.00000000 30 39 221 0.000000 0.000000 0.000000 0.000000 -60.708740 0.000000 170.000000 0.905649 -0.401415 0.136622
-5160.00000000 -11070.00000000 340.00000000 30 39 221 0.000000 0.000000 0.000000 0.000000 -60.708740 0.000000 170.000000 0.749810 -0.610897 0.254146
-5150.00000000 -11080.00000000 320.00000000 30 39 221 0.000000 0.000000 0.000000 0.000000 -60.708740 0.000000 170.000000 0.814628 -0.579506 0.023512
-5170.00000000 -11120.00000000 380.00000000 30 39 221 0.000000 0.000000 0.000000 0.000000 -60.708740 0.000000 170.000000 0.934776 -0.220030 0.278891
-5160.00000000 -11130.00000000 370.00000000 30 39 221 0.000000 0.000000 0.000000 0.000000 -60.708740 0.000000 170.000000 0.990787 0.093427 0.098041
-5160.00000000 -11150.00000000 360.00000000 30 39 221 0.000000 0.000000 0.000000 0.000000 -60.708740 0.000000 170.000000 0.951091 0.129029 0.280672
-5160.00000000 -11140.00000000 390.00000000 30 39 221 0.000000 0.000000 0.000000 0.000000 -60.708740 0.000000 170.000000 0.978374 0.104606 -0.178445
-5170.00000000 -11140.00000000 370.00000000 30 39 221 0.000000 0.000000 0.000000 0.000000 -60.708740 0.000000 170.000000 0.991372 -0.025706 -0.128532
-5160.00000000 -11150.00000000 320.00000000 30 39 221 0.000000 0.000000 0.000000 0.000000 -60.708740 0.000000 170.000000 0.822366 0.556521 -0.118316
-5160.00000000 -11130.00000000 350.00000000 30 39 221 0.000000 0.000000 0.000000 0.000000 -60.708740 0.000000 170.000000 0.973560 0.221097 0.057412
-5160.00000000 -11140.00000000 340.00000000 30 39 221 0.000000 0.000000 0.000000 0.000000 -60.708740 0.000000 170.000000 0.998945 0.001020 0.045917
-5160.00000000 -11140.00000000 350.00000000 30 39 221 0.000000 0.000000 0.000000 0.000000 -60.708740 0.000000 170.000000 0.993520 0.095423 -0.061744
-5170.00000000 -11110.00000000 330.00000000 30 39 221 0.000000 0.000000 0.000000 0.000000 -60.708740 0.000000 170.000000 0.906740 -0.394665 -0.148530
-5170.00000000 -11110.00000000 320.00000000 30 39 221 0.000000 0.000000 0.000000 0.000000 -60.708740 0.000000 170.000000 0.884306 -0.466754 0.011968
-5190.00000000 -11080.00000000 330.00000000 30 39 221 0.000000 0.000000 0.000000 0.000000 -60.708740 0.000000 170.000000 0.964990 -0.181507 -0.189342
-5080.00000000 -10930.00000000 80.00000000 30 39 221 0.000000 0.000000 0.000000 0.000000 -60.708740 0.000000 170.000000 0.079243 0.991117 0.106806
-5110.00000000 -10950.00000000 30.00000000 30 39 221 0.000000 0.000000 0.000000 0.000000 -60.708740 0.000000 170.000000 0.051400 0.990302 -0.129071
-5120.00000000 -10960.00000000 10.00000000 30 39 221 0.000000 0.000000 0.000000 0.000000 -60.708740 0.000000 170.000000 -0.091306 0.990496 -0.102864
-5080.00000000 -11000.00000000 300.00000000 30 39 221 0.000000 0.000000 0.000000 0.000000 -60.708740 0.000000 170.000000 0.519509 0.847621 -0.107931
-5100.00000000 -11000.00000000 300.00000000 30 39 221 0.000000 0.000000 0.000000 0.000000 -60.708740 0.000000 170.000000 0.307307 0.943391 0.124801
-5090.00000000 -11030.00000000 250.00000000 30 39 221 0.000000 0.000000 0.000000 0.000000 -60.708740 0.000000 170.000000 0.039466 0.948452 0.314453
-5110.00000000 -11050.00000000 280.00000000 30 39 221 0.000000 0.000000 0.000000 0.000000 -60.708740 0.000000 170.000000 -0.205264 0.898212 0.388692
-5120.00000000 -11050.00000000 280.00000000 30 39 221 0.000000 0.000000 0.000000 0.000000 -60.708740 0.000000 170.000000 0.080884 0.988194 -0.130118
-5130.00000000 -11060.00000000 280.00000000 30 39 221 0.000000 0.000000 0.000000 0.000000 -60.708740 0.000000 170.000000 -0.424773 0.844878 0.325192
-5110.00000000 -11050.00000000 310.00000000 30 39 221 0.000000 0.000000 0.000000 0.000000 -60.708740 0.000000 170.000000 -0.152564 0.987654 -0.035560
-5110.00000000 -11050.00000000 310.00000000 30 39 221 0.000000 0.000000 0.000000 0.000000 -60.708740 0.000000 170.000000 -0.152564 0.987654 -0.035560
-5110.00000000 -11050.00000000 280.00000000 30 39 221 0.000000 0.000000 0.000000 0.000000 -60.708740 0.000000 170.000000 -0.205264 0.898212 0.388692
-5120.00000000 -11050.00000000 280.00000000 30 39 221 0.000000 0.000000 0.000000 0.000000 -60.708740 0.000000 170.000000 0.080884 0.988194 -0.130118
-5120.00000000 -11050.00000000 300.00000000 30 39 221 0.000000 0.000000 0.000000 0.000000 -60.708740 0.000000 170.000000 -0.201177 0.836471 0.509748
-5130.00000000 -11030.00000000 240.00000000 30 39 221 0.000000 0.000000 0.000000 0.000000 -60.708740 0.000000 170.000000 0.129944 0.966216 0.222577
-5130.00000000 -11030.00000000 240.00000000 30 39 221 0.000000 0.000000 0.000000 0.000000 -60.708740 0.000000 170.000000 0.129944 0.966216 0.222577
-5110.00000000 -11030.00000000 250.00000000 30 39 221 0.000000 0.000000 0.000000 0.000000 -60.708740 0.000000 170.000000 0.038857 0.956375 -0.289545
-5080.00000000 -11000.00000000 220.00000000 30 39 221 0.000000 0.000000 0.000000 0.000000 -60.708740 0.000000 170.000000 0.383499 0.860947 0.334214
-5100.00000000 -11040.00000000 220.00000000 30 39 221 0.000000 0.000000 0.000000 0.000000 -60.708740 0.000000 170.000000 -0.280580 0.957048 0.073028
-5090.00000000 -11030.00000000 220.00000000 30 39 221 0.000000 0.000000 0.000000 0.000000 -60.708740 0.000000 170.000000 -0.073259 0.996099 -0.049204
-5100.00000000 -11040.00000000 220.00000000 30 39 221 0.000000 0.000000 0.000000 0.000000 -60.708740 0.000000 170.000000 -0.280580 0.957048 0.073028
-5060.00000000 -11030.00000000 200.00000000 30 39 221 0.000000 0.000000 0.000000 0.000000 -60.708740 0.000000 170.000000 0.631682 0.773634 -0.049683
-5090.00000000 -11030.00000000 210.00000000 30 39 221 0.000000 0.000000 0.000000 0.000000 -60.708740 0.000000 170.000000 0.303543 0.952753 -0.011151
-5100.00000000 -11040.00000000 230.00000000 30 39 221 0.000000 0.000000 0.000000 0.000000 -60.708740 0.000000 170.000000 -0.079250 0.994527 -0.068088
-5100.00000000 -11030.00000000 220.00000000 30 39 221 0.000000 0.000000 0.000000 0.000000 -60.708740 0.000000 170.000000 0.103811 0.909387 0.402788
-5080.00000000 -11040.00000000 190.00000000 30 39 221 0.000000 0.000000 0.000000 0.000000 -60.708740 0.000000 170.000000 0.043215 0.984607 0.169357
-5100.00000000 -11030.00000000 170.00000000 30 39 221 0.000000 0.000000 0.000000 0.000000 -60.708740 0.000000 170.000000 0.112237 0.991998 0.057819
-5110.00000000 -11040.00000000 220.00000000 30 39 221 0.000000 0.000000 0.000000 0.000000 -60.708740 0.000000 170.000000 -0.203293 0.978863 0.022327
-5140.00000000 -11030.00000000 210.00000000 30 39 221 0.000000 0.000000 0.000000 0.000000 -60.708740 0.000000 170.000000 -0.458289 0.888683 -0.014612
-5120.00000000 -11040.00000000 220.00000000 30 39 221 0.000000 0.000000 0.000000 0.000000 -60.708740 0.000000 170.000000 0.085442 0.992270 -0.089999
-5060.00000000 -11100.00000000 300.00000000 30 39 221 0.000000 0.000000 0.000000 0.000000 -60.708740 0.000000 170.000000 0.728813 0.602766 0.324815
-5060.00000000 -11080.00000000 270.00000000 30 39 221 0.000000 0.000000 0.000000 0.000000 -60.708740 0.000000 170.000000 0.630964 0.743136 0.222785
-5100.00000000 -11150.00000000 290.00000000 30 39 221 0.000000 0.000000 0.000000 0.000000 -60.708740 0.000000 170.000000 -0.251410 0.940355 -0.229185
-5100.00000000 -11150.00000000 270.00000000 30 39 221 0.000000 0.000000 0.000000 0.000000 -60.708740 0.000000 170.000000 0.070597 0.993958 -0.084044
-5070.00000000 -11140.00000000 260.00000000 30 39 221 0.000000 0.000000 0.000000 0.000000 -60.708740 0.000000 170.000000 0.997420 -0.068897 0.020139
-5100.00000000 -11150.00000000 240.00000000 30 39 221 0.000000 0.000000 0.000000 0.000000 -60.708740 0.000000 170.000000 -0.190946 0.923612 0.332387
-5080.00000000 -11150.00000000 240.00000000 30 39 221 0.000000 0.000000 0.000000 0.000000 -60.708740 0.000000 170.000000 -0.482629 0.861105 0.159898
-5140.00000000 -11150.00000000 290.00000000 30 39 221 0.000000 0.000000 0.000000 0.000000 -60.708740 0.000000 170.000000 0.600444 0.793288 0.100805
-5110.00000000 -11150.00000000 260.00000000 30 39 221 0.000000 0.000000 0.000000 0.000000 -60.708740 0.000000 170.000000 0.359144 0.885088 0.296031
-5130.00000000 -11150.00000000 260.00000000 30 39 221 0.000000 0.000000 0.000000 0.000000 -60.708740 0.000000 170.000000 0.540817 0.833699 0.111643
-5130.00000000 -11150.00000000 240.00000000 30 39 221 0.000000 0.000000 0.000000 0.000000 -60.708740 0.000000 170.000000 0.552207 0.826124 -0.112190
-5130.00000000 -11150.00000000 260.00000000 30 39 221 0.000000 0.000000 0.000000 0.000000 -60.708740 0.000000 170.000000 0.540817 0.833699 0.111643
-5070.00000000 -11070.00000000 160.00000000 30 39 221 0.000000 0.000000 0.000000 0.000000 -60.708740 0.000000 170.000000 0.830783 0.547595 0.099694
-5070.00000000 -11070.00000000 150.00000000 30 39 221 0.000000 0.000000 0.000000 0.000000 -60.708740 0.000000 170.000000 0.862735 0.494825 0.104099
-5070.00000000 -11100.00000000 190.00000000 30 39 221 0.000000 0.000000 0.000000 0.000000 -60.708740 0.000000 170.000000 0.942455 0.199498 0.268290
-5080.00000000 -11120.00000000 220.00000000 30 39 221 0.000000 0.000000 0.000000 0.000000 -60.708740 0.000000 170.000000 0.993204 -0.093784 -0.068925
-5060.00000000 -11130.00000000 210.00000000 30 39 221 0.000000 0.000000 0.000000 0.000000 -60.708740 0.000000 170.000000 0.871705 -0.312959 0.377077
-5060.00000000 -11120.00000000 220.00000000 30 39 221 0.000000 0.000000 0.000000 0.000000 -60.708740 0.000000 170.000000 0.934507 -0.331511 0.129603
-5090.00000000 -11150.00000000 230.00000000 30 39 221 0.000000 0.000000 0.000000 0.000000 -60.708740 0.000000 170.000000 -0.239713 0.957527 -0.160250
-5060.00000000 -11110.00000000 220.00000000 30 39 221 0.000000 0.000000 0.000000 0.000000 -60.708740 0.000000 170.000000 0.935406 0.225113 0.272652
-5110.00000000 -11140.00000000 210.00000000 30 39 221 0.000000 0.000000 0.000000 0.000000 -60.708740 0.000000 170.000000 -0.013802 0.996897 0.077501
-5110.00000000 -11140.00000000 210.00000000 30 39 221 0.000000 0.000000 0.000000 0.000000 -60.708740 0.000000 170.000000 -0.013802 0.996897 0.077501
-5140.00000000 -11150.00000000 230.00000000 30 39 221 0.000000 0.000000 0.000000 0.000000 -60.708740 0.000000 170.000000 0.596076 0.790286 -0.141923
-5170.00000000 -11050.00000000 200.00000000 30 39 221 0.000000 0.000000 0.000000 0.000000 -60.708740 0.000000 170.000000 0.825316 -0.456054 -0.332967
-5180.00000000 -11060.00000000 180.00000000 30 39 221 0.000000 0.000000 0.000000 0.000000 -60.708740 0.000000 170.000000 0.958751 -0.236712 -0.157367
-5150.00000000 -11060.00000000 190.00000000 30 39 221 0.000000 0.000000 0.000000 0.000000 -60.708740 0.000000 170.000000 -0.586849 0.804200 0.094186
-5160.00000000 -11040.00000000 160.00000000 30 39 221 0.000000 0.000000 0.000000 0.000000 -60.708740 0.000000 170.000000 0.837183 -0.535391 0.111721
-5150.00000000 -11070.00000000 300.00000000 30 39 221 0.000000 0.000000 0.000000 0.000000 -60.708740 0.000000 170.000000 0.720176 -0.691541 -0.055839
-5150.00000000 -11080.00000000 310.00000000 30 39 221 0.000000 0.000000 0.000000 0.000000 -60.708740 0.000000 170.000000 0.712821 -0.695257 0.092213
-5150.00000000 -11070.00000000 240.00000000 30 39 221 0.000000 0.000000 0.000000 0.000000 -60.708740 0.000000 170.000000 -0.441532 0.887350 -0.132888
-5150.00000000 -11150.00000000 300.00000000 30 39 221 0.000000 0.000000 0.000000 0.000000 -60.708740 0.000000 170.000000 0.807486 0.339240 0.482580
-5150.00000000 -11140.00000000 310.00000000 30 39 221 0.000000 0.000000 0.000000 0.000000 -60.708740 0.000000 170.000000 0.972207 0.080707 0.219771
-5150.00000000 -11140.00000000 240.00000000 30 39 221 0.000000 0.000000 0.000000 0.000000 -60.708740 0.000000 170.000000 0.788033 0.595903 -0.154605
-5160.00000000 -11100.00000000 230.00000000 30 39 221 0.000000 0.000000 0.000000 0.000000 -60.708740 0.000000 170.000000 0.992091 -0.036993 -0.119948
-5150.00000000 -11100.00000000 160.00000000 30 39 221 0.000000 0.000000 0.000000 0.000000 -60.708740 0.000000 170.000000 0.831187 -0.541951 -0.124167
-5180.00000000 -11090.00000000 180.00000000 30 39 221 0.000000 0.000000 0.000000 0.000000 -60.708740 0.000000 170.000000 0.916231 -0.381185 -0.123365
-5160.00000000 -11110.00000000 230.00000000 30 39 221 0.000000 0.000000 0.000000 0.000000 -60.708740 0.000000 170.000000 0.976984 0.089937 0.193426
-5160.00000000 -11110.00000000 160.00000000 30 39 221 0.000000 0.000000 0.000000 0.000000 -60.708740 0.000000 170.000000 0.958767 -0.208775 0.192817
-5170.00000000 -11120.00000000 160.00000000 30 39 221 0.000000 0.000000 0.000000 0.000000 -60.708740 0.000000 170.000000 0.942945 0.290662 0.162389
-5080.00000000 -11000.00000000 100.00000000 30 39 221 0.000000 0.000000 0.000000 0.000000 -60.708740 0.000000 170.000000 0.422128 0.891798 0.162800
-5080.00000000 -11000.00000000 100.00000000 30 39 221 0.000000 0.000000 0.000000 0.000000 -60.708740 0.000000 170.000000 0.422128 0.891798 0.162800
-5080.00000000 -11030.00000000 120.00000000 30 39 221 0.000000 0.000000 0.000000 0.000000 -60.708740 0.000000 170.000000 -0.025136 0.906235 0.422027
-5090.00000000 -11050.00000000 90.00000000 30 39 221 0.000000 0.000000 0.000000 0.000000 -60.708740 0.000000 170.000000 0.465759 0.884268 0.033751
-5140.00000000 -11020.00000000 130.00000000 30 39 221 0.000000 0.000000 0.000000 0.000000 -60.708740 0.000000 170.000000 0.000978 0.999999 0.000978
-5130.00000000 -11000.00000000 70.00000000 30 39 221 0.000000 0.000000 0.000000 0.000000 -60.708740 0.000000 170.000000 -0.472424 0.856363 -0.208467
-5110.00000000 -11030.00000000 120.00000000 30 39 221 0.000000 0.000000 0.000000 0.000000 -60.708740 0.000000 170.000000 0.180357 0.983237 -0.026763
-5140.00000000 -11030.00000000 140.00000000 30 39 221 0.000000 0.000000 0.000000 0.000000 -60.708740 0.000000 170.000000 -0.354395 0.796987 0.489097
-5120.00000000 -11050.00000000 100.00000000 30 39 221 0.000000 0.000000 0.000000 0.000000 -60.708740 0.000000 170.000000 -0.116074 0.945940 0.302861
-5090.00000000 -11000.00000000 30.00000000 30 39 221 0.000000 0.000000 0.000000 0.000000 -60.708740 0.000000 170.000000 0.303515 0.924795 0.229418
-5100.00000000 -10990.00000000 60.00000000 30 39 221 0.000000 0.000000 0.000000 0.000000 -60.708740 0.000000 170.000000 -0.088163 0.994348 0.059148
-5090.00000000 -11000.00000000 40.00000000 30 39 221 0.000000 0.000000 0.000000 0.000000 -60.708740 0.000000 170.000000 0.160928 0.986950 0.005627
-5090.00000000 -11000.00000000 60.00000000 30 39 221 0.000000 0.000000 0.000000 0.000000 -60.708740 0.000000 170.000000 0.354028 0.935193 -0.008882
-5060.00000000 -11000.00000000 40.00000000 30 39 221 0.000000 0.000000 0.000000 0.000000 -60.708740 0.000000 170.000000 0.645179 0.690683 0.326652
-5100.00000000 -11000.00000000 30.00000000 30 39 221 0.000000 0.000000 0.000000 0.000000 -60.708740 0.000000 170.000000 0.220917 0.911101 0.347980
-5100.00000000 -11000.00000000 30.00000000 30 39 221 0.000000 0.000000 0.000000 0.000000 -60.708740 0.000000 170.000000 0.220917 0.911101 0.347980
-5060.00000000 -10990.00000000 0.00000000 30 39 221 0.000000 0.000000 0.000000 0.000000 -60.708740 0.000000 170.000000 0.597478 0.739197 0.310817
-5100.00000000 -11000.00000000 -10.00000000 30 39 221 0.000000 0.000000 0.000000 0.000000 -60.708740 0.000000 170.000000 -0.251171 0.913215 0.320859
-5070.00000000 -11030.00000000 20.00000000 30 39 221 0.000000 0.000000 0.000000 0.000000 -60.708740 0.000000 170.000000 0.729023 0.668648 0.146408
-5130.00000000 -11000.00000000 60.00000000 30 39 221 0.000000 0.000000 0.000000 0.000000 -60.708740 0.000000 170.000000 -0.381857 0.919991 -0.088330
-5110.00000000 -11010.00000000 10.00000000 30 39 221 0.000000 0.000000 0.000000 0.000000 -60.708740 0.000000 170.000000 -0.277605 0.936046 -0.216225
-5110.00000000 -11000.00000000 20.00000000 30 39 221 0.000000 0.000000 0.000000 0.000000 -60.708740 0.000000 170.000000 -0.052848 0.992873 -0.106821
-5060.00000000 -11090.00000000 80.00000000 30 39 221 0.000000 0.000000 0.000000 0.000000 -60.708740 0.000000 170.000000 0.990740 0.116219 -0.070192
-5070.00000000 -11110.00000000 130.00000000 30 39 221 0.000000 0.000000 0.000000 0.000000 -60.708740 0.000000 170.000000 0.994627 0.038637 -0.096041
-5070.00000000 -11110.00000000 130.00000000 30 39 221 0.000000 0.000000 0.000000 0.000000 -60.708740 0.000000 170.000000 0.994627 0.038637 -0.096041
-5100.00000000 -11120.00000000 130.00000000 30 39 221 0.000000 0.000000 0.000000 0.000000 -60.708740 0.000000 170.000000 -0.251639 0.944677 0.210387
-5070.00000000 -11110.00000000 140.00000000 30 39 221 0.000000 0.000000 0.000000 0.000000 -60.708740 0.000000 170.000000 0.992567 -0.043839 -0.113533
-5080.00000000 -11100.00000000 50.00000000 30 39 221 0.000000 0.000000 0.000000 0.000000 -60.708740 0.000000 170.000000 0.902766 0.402335 -0.152120
-5070.00000000 -11090.00000000 20.00000000 30 39 221 0.000000 0.000000 0.000000 0.000000 -60.708740 0.000000 170.000000 0.968946 0.084201 0.232497
-5070.00000000 -11100.00000000 0.00000000 30 39 221 0.000000 0.000000 0.000000 0.000000 -60.708740 0.000000 170.000000 0.964417 0.248430 -0.090454
-5070.00000000 -11100.00000000 10.00000000 30 39 221 0.000000 0.000000 0.000000 0.000000 -60.708740 0.000000 170.000000 0.962660 0.155859 0.221346
-5110.00000000 -11110.00000000 50.00000000 30 39 221 0.000000 0.000000 0.000000 0.000000 -60.708740 0.000000 170.000000 0.884485 0.447244 0.132887
-5110.00000000 -11110.00000000 30.00000000 30 39 221 0.000000 0.000000 0.000000 0.000000 -60.708740 0.000000 170.000000 0.471658 0.865440 -0.168974
-5120.00000000 -11110.00000000 10.00000000 30 39 221 0.000000 0.000000 0.000000 0.000000 -60.708740 0.000000 170.000000 0.901733 0.351573 -0.251544
-5150.00000000 -11010.00000000 110.00000000 30 39 221 0.000000 0.000000 0.000000 0.000000 -60.708740 0.000000 170.000000 -0.161905 0.898355 0.408343
-5150.00000000 -11000.00000000 70.00000000 30 39 221 0.000000 0.000000 0.000000 0.000000 -60.708740 0.000000 170.000000 -0.060193 0.997940 0.022176
-5170.00000000 -11030.00000000 110.00000000 30 39 221 0.000000 0.000000 0.000000 0.000000 -60.708740 0.000000 170.000000 -0.627550 0.773153 -0.091730
-5150.00000000 -11040.00000000 70.00000000 30 39 221 0.000000 0.000000 0.000000 0.000000 -60.708740 0.000000 170.000000 0.885501 -0.464590 -0.006618
-5160.00000000 -11040.00000000 60.00000000 30 39 221 0.000000 0.000000 0.000000 0.000000 -60.708740 0.000000 170.000000 0.859973 -0.482352 0.166684
-5190.00000000 -11040.00000000 60.00000000 30 39 221 0.000000 0.000000 0.000000 0.000000 -60.708740 0.000000 170.000000 0.842472 -0.530657 0.092972
-5160.00000000 -11070.00000000 110.00000000 30 39 221 0.000000 0.000000 0.000000 0.000000 -60.708740 0.000000 170.000000 -0.625257 0.768514 -0.135796
-5170.00000000 -11070.00000000 110.00000000 30 39 221 0.000000 0.000000 0.000000 0.000000 -60.708740 0.000000 170.000000 0.820140 -0.366446 -0.439417
-5160.00000000 -11110.00000000 120.00000000 30 39 221 0.000000 0.000000 0.000000 0.000000 -60.708740 0.000000 170.000000 0.926638 0.341393 0.157459
-5160.00000000 -11070.00000000 60.00000000 30 39 221 0.000000 0.000000 0.000000 0.000000 -60.708740 0.000000 170.000000 0.913121 -0.338995 -0.226477
-5160.00000000 -11070.00000000 60.00000000 30 39 221 0.000000 0.000000 0.000000 0.000000 -60.708740 0.000000 170.000000 0.913121 -0.338995 -0.226477
-5180.00000000 -11070.00000000 -10.00000000 30 39 221 0.000000 0.000000 0.000000 0.000000 -60.708740 0.000000 170.000000 0.943828 -0.252147 0.213567
-5150.00000000 -11090.00000000 10.00000000 30 39 221 0.000000 0.000000 0.000000 0.000000 -60.708740 0.000000 170.000000 0.947473 -0.257658 0.189495
-5250.00000000 -11150.00000000 0.00000000 30 39 221 0.000000 0.000000 0.000000 0.000000 -60.708740 0.000000 170.000000 0.919608 0.311318 -0.239586
-5070.00000000 -11160.00000000 630.00000000 30 39 221 0.000000 0.000000 0.000000 0.000000 -60.708740 0.000000 170.000000 0.994194 0.107334 0.007589
-5060.00000000 -11160.00000000 580.00000000 30 39 221 0.000000 0.000000 0.000000 0.000000 -60.708740 0.000000 170.000000 0.956790 0.277611 -0.086511
-5060.00000000 -11160.00000000 580.00000000 30 39 221 0.000000 0.000000 0.000000 0.000000 -60.708740 0.000000 170.000000 0.956790 0.277611 -0.086511
-5070.00000000 -11170.00000000 580.00000000 30 39 221 0.000000 0.000000 0.000000 0.000000 -60.708740 0.000000 170.000000 0.886480 -0.446786 0.120561
-5070.00000000 -11160.00000000 590.00000000 30 39 221 0.000000 0.000000 0.000000 0.000000 -60.708740 0.000000 170.000000 0.896251 -0.001308 0.443546
-5060.00000000 -11230.00000000 620.00000000 30 39 221 0.000000 0.000000 0.000000 0.000000 -60.708740 0.000000 170.000000 -0.404441 0.913640 -0.041107
-5060.00000000 -11230.00000000 630.00000000 30 39 221 0.000000 0.000000 0.000000 0.000000 -60.708740 0.000000 170.000000 -0.515651 0.856712 0.012181
-5080.00000000 -11230.00000000 600.00000000 30 39 221 0.000000 0.000000 0.000000 0.000000 -60.708740 0.000000 170.000000 -0.236712 0.958751 -0.157367
-5110.00000000 -11230.00000000 610.00000000 30 39 221 0.000000 0.000000 0.000000 0.000000 -60.708740 0.000000 170.000000 -0.001201 0.964763 0.263117
-5110.00000000 -11230.00000000 590.00000000 30 39 221 0.000000 0.000000 0.000000 0.000000 -60.708740 0.000000 170.000000 0.139824 0.926160 0.350252
-5100.00000000 -11160.00000000 550.00000000 30 39 221 0.000000 0.000000 0.000000 0.000000 -60.708740 0.000000 170.000000 0.966907 -0.249484 -0.053372
-5070.00000000 -11190.00000000 530.00000000 30 39 221 0.000000 0.000000 0.000000 0.000000 -60.708740 0.000000 170.000000 0.883776 -0.333871 -0.327828
-5100.00000000 -11160.00000000 560.00000000 30 39 221 0.000000 0.000000 0.000000 0.000000 -60.708740 0.000000 170.000000 0.994870 0.011882 -0.100459
-5070.00000000 -11160.00000000 550.00000000 30 39 221 0.000000 0.000000 0.000000 0.000000 -60.708740 0.000000 170.000000 0.940089 0.313363 -0.134298
-5070.00000000 -11190.00000000 520.00000000 30 39 221 0.000000 0.000000 0.000000 0.000000 -60.708740 0.000000 170.000000 0.925874 -0.377777 -0.006403
-5080.00000000 -11190.00000000 500.00000000 30 39 221 0.000000 0.000000 0.000000 0.000000 -60.708740 0.000000 170.000000 0.782029 -0.616012 0.094659
-5070.00000000 -11180.00000000 500.00000000 30 39 221 0.000000 0.000000 0.000000 0.000000 -60.708740 0.000000 170.000000 0.892569 -0.272688 -0.359114
-5080.00000000 -11190.00000000 520.00000000 30 39 221 0.000000 0.000000 0.000000 0.000000 -60.708740 0.000000 170.000000 0.833844 -0.522463 -0.178146
-5080.00000000 -11210.00000000 550.00000000 30 39 221 0.000000 0.000000 0.000000 0.000000 -60.708740 0.000000 170.000000 -0.330509 0.875773 0.351832
-5090.00000000 -11210.00000000 530.00000000 30 39 221 0.000000 0.000000 0.000000 0.000000 -60.708740 0.000000 170.000000 -0.040865 0.998566 -0.034578
-5090.00000000 -11210.00000000 510.00000000 30 39 221 0.000000 0.000000 0.000000 0.000000 -60.708740 0.000000 170.000000 -0.028941 0.950033 0.310805
-5100.00000000 -11210.00000000 510.00000000 30 39 221 0.000000 0.000000 0.000000 0.000000 -60.708740 0.000000 170.000000 0.087230 0.967110 0.238933
-5090.00000000 -11210.00000000 500.00000000 30 39 221 0.000000 0.000000 0.000000 0.000000 -60.708740 0.000000 170.000000 -0.117470 0.978090 0.171877
-5090.00000000 -11200.00000000 490.00000000 30 39 221 0.000000 0.000000 0.000000 0.000000 -60.708740 0.000000 170.000000 -0.025269 0.999639 -0.009097
-5140.00000000 -11190.00000000 500.00000000 30 39 221 0.000000 0.000000 0.000000 0.000000 -60.708740 0.000000 170.000000 0.507158 0.833080 0.220835
-5120.00000000 -11230.00000000 530.00000000 30 39 221 0.000000 0.000000 0.000000 0.000000 -60.708740 0.000000 170.000000 0.320408 0.839314 0.439194
-5130.00000000 -11210.00000000 530.00000000 30 39 221 0.000000 0.000000 0.000000 0.000000 -60.708740 0.000000 170.000000 0.366859 0.875286 0.315103
-5120.00000000 -11200.00000000 550.00000000 30 39 221 0.000000 0.000000 0.000000 0.000000 -60.708740 0.000000 170.000000 0.052126 0.975848 -0.212141
-5120.00000000 -11210.00000000 520.00000000 30 39 221 0.000000 0.000000 0.000000 0.000000 -60.708740 0.000000 170.000000 0.352364 0.909186 0.221859
-5120.00000000 -11210.00000000 500.00000000 30 39 221 0.000000 0.000000 0.000000 0.000000 -60.708740 0.000000 170.000000 0.515191 0.850998 0.101890
-5070.00000000 -11240.00000000 640.00000000 30 39 221 0.000000 0.000000 0.000000 0.000000 -60.708740 0.000000 170.000000 -0.443325 0.890845 -0.099294
-5060.00000000 -11250.00000000 610.00000000 30 39 221 0.000000 0.000000 0.000000 0.000000 -60.708740 0.000000 170.000000 -0.459197 0.887054 0.047691
-5120.00000000 -11240.00000000 590.00000000 30 39 221 0.000000 0.000000 0.000000 0.000000 -60.708740 0.000000 170.000000 0.284288 0.852863 0.437956
-5060.00000000 -11240.00000000 620.00000000 30 39 221 0.000000 0.000000 0.000000 0.000000 -60.708740 0.000000 170.000000 0.703366 -0.709072 0.049935
-5070.00000000 -11250.00000000 580.00000000 30 39 221 0.000000 0.000000 0.000000 0.000000 -60.708740 0.000000 170.000000 -0.378790 0.923716 -0.057151
-5090.00000000 -11240.00000000 540.00000000 30 39 221 0.000000 0.000000 0.000000 0.000000 -60.708740 0.000000 170.000000 -0.471004 0.856234 0.212177
-5150.00000000 -11170.00000000 600.00000000 30 39 221 0.000000 0.000000 0.000000 0.000000 -60.708740 0.000000 170.000000 0.981285 -0.075854 0.176992
-5150.00000000 -11170.00000000 580.00000000 30 39 221 0.000000 0.000000 0.000000 0.000000 -60.708740 0.000000 170.000000 0.982009 -0.120769 -0.145167
-5150.00000000 -11160.00000000 510.00000000 30 39 221 0.000000 0.000000 0.000000 0.000000 -60.708740 0.000000 170.000000 0.905999 0.063650 0.418466
-5190.00000000 -11160.00000000 500.00000000 30 39 221 0.000000 0.000000 0.000000 0.000000 -60.708740 0.000000 170.000000 0.967828 0.234050 -0.092355
-5060.00000000 -11180.00000000 450.00000000 30 39 221 0.000000 0.000000 0.000000 0.000000 -60.708740 0.000000 170.000000 0.729720 -0.621140 -0.285820
-5090.00000000 -11180.00000000 420.00000000 30 39 221 0.000000 0.000000 0.000000 0.000000 -60.708740 0.000000 170.000000 -0.452441 0.834433 0.314673
-5080.00000000 -11190.00000000 420.00000000 30 39 221 0.000000 0.000000 0.000000 0.000000 -60.708740 0.000000 170.000000 0.532900 -0.734181 -0.420710
-5090.00000000 -11180.00000000 410.00000000 30 39 221 0.000000 0.000000 0.000000 0.000000 -60.708740 0.000000 170.000000 -0.321571 0.943713 -0.077440
-5080.00000000 -11210.00000000 460.00000000 30 39 221 0.000000 0.000000 0.000000 0.000000 -60.708740 0.000000 170.000000 -0.326259 0.921788 0.209433
-5080.00000000 -11200.00000000 470.00000000 30 39 221 0.000000 0.000000 0.000000 0.000000 -60.708740 0.000000 170.000000 -0.520596 0.849692 0.083692
-5100.00000000 -11210.00000000 440.00000000 30 39 221 0.000000 0.000000 0.000000 0.000000 -60.708740 0.000000 170.000000 -0.129267 0.968862 0.211179
-5120.00000000 -11190.00000000 450.00000000 30 39 221 0.000000 0.000000 0.000000 0.000000 -60.708740 0.000000 170.000000 0.257324 0.956718 -0.135920
-5140.00000000 -11190.00000000 480.00000000 30 39 221 0.000000 0.000000 0.000000 0.000000 -60.708740 0.000000 170.000000 0.748389 0.649799 0.132947
-5130.00000000 -11190.00000000 430.00000000 30 39 221 0.000000 0.000000 0.000000 0.000000 -60.708740 0.000000 170.000000 0.443119 0.847639 0.291810
-5130.00000000 -11190.00000000 410.00000000 30 39 221 0.000000 0.000000 0.000000 0.000000 -60.708740 0.000000 170.000000 0.491822 0.868655 0.059573
-5140.00000000 -11160.00000000 410.00000000 30 39 221 0.000000 0.000000 0.000000 0.000000 -60.708740 0.000000 170.000000 0.808379 0.587785 0.032112
-5120.00000000 -11190.00000000 440.00000000 30 39 221 0.000000 0.000000 0.000000 0.000000 -60.708740 0.000000 170.000000 0.308169 0.938202 -0.157508
-5130.00000000 -11180.00000000 410.00000000 30 39 221 0.000000 0.000000 0.000000 0.000000 -60.708740 0.000000 170.000000 0.697386 0.691228 0.189357
-5110.00000000 -11200.00000000 450.00000000 30 39 221 0.000000 0.000000 0.000000 0.000000 -60.708740 0.000000 170.000000 0.366788 0.930297 -0.003807
-5120.00000000 -11210.00000000 470.00000000 30 39 221 0.000000 0.000000 0.000000 0.000000 -60.708740 0.000000 170.000000 -0.113882 0.980856 0.157966
-5110.00000000 -11210.00000000 470.00000000 30 39 221 0.000000 0.000000 0.000000 0.000000 -60.708740 0.000000 170.000000 -0.165972 0.968815 0.183985
