//X Y Z R G B PointSourceId ScanDirectionFlag NumberOfReturns ReturnNumber GpsTime Intensity Classification Nx Ny Nz
2750.00000000 -21820.00000000 -520.00000000 185 7 159 0.000000 0.000000 0.000000 0.000000 -60.708740 0.000000 157.000000 0.817636 -0.532307 -0.219366
2720.00000000 -21880.00000000 -380.00000000 185 7 159 0.000000 0.000000 0.000000 0.000000 -60.708740 0.000000 157.000000 0.675199 -0.544515 -0.497603
2700.00000000 -21880.00000000 -440.00000000 185 7 159 0.000000 0.000000 0.000000 0.000000 -60.708740 0.000000 157.000000 0.690254 -0.427459 -0.583805
2700.00000000 -21890.00000000 -430.00000000 185 7 159 0.000000 0.000000 0.000000 0.000000 -60.708740 0.000000 157.000000 0.992406 -0.115762 -0.041584
2700.00000000 -21890.00000000 -430.00000000 185 7 159 0.000000 0.000000 0.000000 0.000000 -60.708740 0.000000 157.000000 0.992406 -0.115762 -0.041584
2780.00000000 -21770.00000000 -530.00000000 185 7 159 0.000000 0.000000 0.000000 0.000000 -60.708740 0.000000 157.000000 -0.373120 0.639399 0.672273
2790.00000000 -21780.00000000 -530.00000000 185 7 159 0.000000 0.000000 0.000000 0.000000 -60.708740 0.000000 157.000000 0.897745 -0.347562 -0.270655
2800.00000000 -21780.00000000 -540.00000000 185 7 159 0.000000 0.000000 0.000000 0.000000 -60.708740 0.000000 157.000000 0.837183 -0.512531 -0.190884
2770.00000000 -21790.00000000 -580.00000000 185 7 159 0.000000 0.000000 0.000000 0.000000 -60.708740 0.000000 157.000000 0.826109 -0.516510 -0.225303
2730.00000000 -21820.00000000 -560.00000000 185 7 159 0.000000 0.000000 0.000000 0.000000 -60.708740 0.000000 157.000000 0.716707 -0.001381 -0.697373
2730.00000000 -21820.00000000 -600.00000000 185 7 159 0.000000 0.000000 0.000000 0.000000 -60.708740 0.000000 157.000000 0.801110 -0.451126 -0.393330
2720.00000000 -21840.00000000 -600.00000000 185 7 159 0.000000 0.000000 0.000000 0.000000 -60.708740 0.000000 157.000000 0.977879 -0.203274 -0.049315
2760.00000000 -21790.00000000 -620.00000000 185 7 159 0.000000 0.000000 0.000000 0.000000 -60.708740 0.000000 157.000000 0.821182 -0.395502 -0.411385
2760.00000000 -21780.00000000 -680.00000000 185 7 159 0.000000 0.000000 0.000000 0.000000 -60.708740 0.000000 157.000000 0.820069 -0.552170 -0.150321
2760.00000000 -21770.00000000 -680.00000000 185 7 159 0.000000 0.000000 0.000000 0.000000 -60.708740 0.000000 157.000000 0.735241 -0.648923 -0.195756
2730.00000000 -21800.00000000 -680.00000000 185 7 159 0.000000 0.000000 0.000000 0.000000 -60.708740 0.000000 157.000000 -0.741358 0.366606 0.562129
2700.00000000 -21790.00000000 -680.00000000 185 7 159 0.000000 0.000000 0.000000 0.000000 -60.708740 0.000000 157.000000 0.937109 -0.215827 -0.274310
2720.00000000 -21810.00000000 -610.00000000 185 7 159 0.000000 0.000000 0.000000 0.000000 -60.708740 0.000000 157.000000 0.687126 -0.018193 -0.726310
2700.00000000 -21830.00000000 -690.00000000 185 7 159 0.000000 0.000000 0.000000 0.000000 -60.708740 0.000000 157.000000 0.828621 -0.345653 -0.440353
2690.00000000 -21810.00000000 -690.00000000 185 7 159 0.000000 0.000000 0.000000 0.000000 -60.708740 0.000000 157.000000 0.942789 -0.037098 -0.331319
2700.00000000 -21830.00000000 -690.00000000 185 7 159 0.000000 0.000000 0.000000 0.000000 -60.708740 0.000000 157.000000 0.828621 -0.345653 -0.440353
2690.00000000 -21880.00000000 -570.00000000 185 7 159 0.000000 0.000000 0.000000 0.000000 -60.708740 0.000000 157.000000 0.993812 -0.101273 -0.045629
2700.00000000 -21860.00000000 -580.00000000 185 7 159 0.000000 0.000000 0.000000 0.000000 -60.708740 0.000000 157.000000 0.891061 -0.178794 -0.417185
2690.00000000 -21900.00000000 -560.00000000 185 7 159 0.000000 0.000000 0.000000 0.000000 -60.708740 0.000000 157.000000 0.784286 0.184269 -0.592402
2700.00000000 -21920.00000000 -580.00000000 185 7 159 0.000000 0.000000 0.000000 0.000000 -60.708740 0.000000 157.000000 0.880057 -0.161465 -0.446574
2700.00000000 -21890.00000000 -600.00000000 185 7 159 0.000000 0.000000 0.000000 0.000000 -60.708740 0.000000 157.000000 0.968216 -0.048102 -0.245446
2690.00000000 -21920.00000000 -590.00000000 185 7 159 0.000000 0.000000 0.000000 0.000000 -60.708740 0.000000 157.000000 0.823514 -0.316494 -0.470804
2700.00000000 -21890.00000000 -590.00000000 185 7 159 0.000000 0.000000 0.000000 0.000000 -60.708740 0.000000 157.000000 0.991844 -0.012136 -0.126877
2710.00000000 -21850.00000000 -660.00000000 185 7 159 0.000000 0.000000 0.000000 0.000000 -60.708740 0.000000 157.000000 0.921840 -0.116776 -0.369560
2730.00000000 -21860.00000000 -610.00000000 185 7 159 0.000000 0.000000 0.000000 0.000000 -60.708740 0.000000 157.000000 0.849262 -0.154545 -0.504847
2710.00000000 -21880.00000000 -620.00000000 185 7 159 0.000000 0.000000 0.000000 0.000000 -60.708740 0.000000 157.000000 0.835365 -0.350822 -0.423189
2690.00000000 -21860.00000000 -610.00000000 185 7 159 0.000000 0.000000 0.000000 0.000000 -60.708740 0.000000 157.000000 0.980673 -0.155488 -0.118758
2690.00000000 -21880.00000000 -640.00000000 185 7 159 0.000000 0.000000 0.000000 0.000000 -60.708740 0.000000 157.000000 0.965391 0.061196 -0.253525
2690.00000000 -21870.00000000 -630.00000000 185 7 159 0.000000 0.000000 0.000000 0.000000 -60.708740 0.000000 157.000000 0.904151 -0.280801 -0.321966
2710.00000000 -21850.00000000 -620.00000000 185 7 159 0.000000 0.000000 0.000000 0.000000 -60.708740 0.000000 157.000000 0.921057 -0.360898 -0.146310
2680.00000000 -21910.00000000 -370.00000000 185 7 159 0.000000 0.000000 0.000000 0.000000 -60.708740 0.000000 157.000000 -0.715214 0.456343 0.529358
2670.00000000 -21920.00000000 -670.00000000 185 7 159 0.000000 0.000000 0.000000 0.000000 -60.708740 0.000000 157.000000 0.987247 0.035628 -0.155155
2670.00000000 -21910.00000000 -670.00000000 185 7 159 0.000000 0.000000 0.000000 0.000000 -60.708740 0.000000 157.000000 0.964634 0.165776 -0.204936
2670.00000000 -21920.00000000 -670.00000000 185 7 159 0.000000 0.000000 0.000000 0.000000 -60.708740 0.000000 157.000000 0.987247 0.035628 -0.155155
2790.00000000 -21740.00000000 -700.00000000 185 7 159 0.000000 0.000000 0.000000 0.000000 -60.708740 0.000000 157.000000 -0.663984 0.722525 0.192571
2770.00000000 -21730.00000000 -760.00000000 185 7 159 0.000000 0.000000 0.000000 0.000000 -60.708740 0.000000 157.000000 -0.589756 0.732727 0.339557
2750.00000000 -21760.00000000 -710.00000000 185 7 159 0.000000 0.000000 0.000000 0.000000 -60.708740 0.000000 157.000000 0.781096 -0.404351 -0.475803
2750.00000000 -21760.00000000 -720.00000000 185 7 159 0.000000 0.000000 0.000000 0.000000 -60.708740 0.000000 157.000000 0.764296 -0.634203 -0.116788
2760.00000000 -21720.00000000 -770.00000000 185 7 159 0.000000 0.000000 0.000000 0.000000 -60.708740 0.000000 157.000000 -0.356648 0.819497 0.448583
2730.00000000 -21740.00000000 -810.00000000 185 7 159 0.000000 0.000000 0.000000 0.000000 -60.708740 0.000000 157.000000 0.888272 -0.395941 -0.232819
2760.00000000 -21740.00000000 -780.00000000 185 7 159 0.000000 0.000000 0.000000 0.000000 -60.708740 0.000000 157.000000 0.797800 -0.470333 -0.377229
2750.00000000 -21740.00000000 -790.00000000 185 7 159 0.000000 0.000000 0.000000 0.000000 -60.708740 0.000000 157.000000 0.790824 -0.460910 -0.402690
2720.00000000 -21730.00000000 -870.00000000 185 7 159 0.000000 0.000000 0.000000 0.000000 -60.708740 0.000000 157.000000 -0.831369 0.515236 0.208222
2720.00000000 -21730.00000000 -870.00000000 185 7 159 0.000000 0.000000 0.000000 0.000000 -60.708740 0.000000 157.000000 -0.831369 0.515236 0.208222
2740.00000000 -21780.00000000 -700.00000000 185 7 159 0.000000 0.000000 0.000000 0.000000 -60.708740 0.000000 157.000000 -0.647231 0.610437 0.456573
2700.00000000 -21840.00000000 -730.00000000 185 7 159 0.000000 0.000000 0.000000 0.000000 -60.708740 0.000000 157.000000 0.941489 0.091368 -0.324423
2690.00000000 -21870.00000000 -720.00000000 185 7 159 0.000000 0.000000 0.000000 0.000000 -60.708740 0.000000 157.000000 0.994460 -0.018517 -0.103476
2670.00000000 -21900.00000000 -700.00000000 185 7 159 0.000000 0.000000 0.000000 0.000000 -60.708740 0.000000 157.000000 0.982118 0.154177 -0.108045
2670.00000000 -21870.00000000 -760.00000000 185 7 159 0.000000 0.000000 0.000000 0.000000 -60.708740 0.000000 157.000000 0.986874 -0.071751 -0.144679
2680.00000000 -21850.00000000 -800.00000000 185 7 159 0.000000 0.000000 0.000000 0.000000 -60.708740 0.000000 157.000000 0.989624 -0.110475 -0.091869
2670.00000000 -21880.00000000 -760.00000000 185 7 159 0.000000 0.000000 0.000000 0.000000 -60.708740 0.000000 157.000000 0.972902 -0.057517 -0.223951
2700.00000000 -22040.00000000 -260.00000000 185 7 159 0.000000 0.000000 0.000000 0.000000 -60.708740 0.000000 157.000000 0.776166 0.444221 -0.447475
2720.00000000 -22080.00000000 -250.00000000 185 7 159 0.000000 0.000000 0.000000 0.000000 -60.708740 0.000000 157.000000 0.741660 0.129828 -0.658092
2710.00000000 -22060.00000000 -270.00000000 185 7 159 0.000000 0.000000 0.000000 0.000000 -60.708740 0.000000 157.000000 0.867218 -0.184672 -0.462418
2720.00000000 -22080.00000000 -290.00000000 185 7 159 0.000000 0.000000 0.000000 0.000000 -60.708740 0.000000 157.000000 0.895430 -0.134811 -0.424300
2690.00000000 -22090.00000000 -320.00000000 185 7 159 0.000000 0.000000 0.000000 0.000000 -60.708740 0.000000 157.000000 0.681854 0.649308 -0.336859
2710.00000000 -21940.00000000 -380.00000000 185 7 159 0.000000 0.000000 0.000000 0.000000 -60.708740 0.000000 157.000000 0.905523 -0.182253 -0.383161
2690.00000000 -21950.00000000 -390.00000000 185 7 159 0.000000 0.000000 0.000000 0.000000 -60.708740 0.000000 157.000000 0.806394 -0.160678 -0.569131
2710.00000000 -21950.00000000 -510.00000000 185 7 159 0.000000 0.000000 0.000000 0.000000 -60.708740 0.000000 157.000000 0.937073 -0.083738 -0.338941
2700.00000000 -22060.00000000 -390.00000000 185 7 159 0.000000 0.000000 0.000000 0.000000 -60.708740 0.000000 157.000000 0.773325 0.621925 -0.123198
2700.00000000 -22090.00000000 -390.00000000 185 7 159 0.000000 0.000000 0.000000 0.000000 -60.708740 0.000000 157.000000 0.735323 0.674886 -0.061877
2690.00000000 -22060.00000000 -460.00000000 185 7 159 0.000000 0.000000 0.000000 0.000000 -60.708740 0.000000 157.000000 0.834871 0.277258 -0.475520
2720.00000000 -22080.00000000 -490.00000000 185 7 159 0.000000 0.000000 0.000000 0.000000 -60.708740 0.000000 157.000000 0.679964 0.733021 -0.018151
2690.00000000 -21990.00000000 -550.00000000 185 7 159 0.000000 0.000000 0.000000 0.000000 -60.708740 0.000000 157.000000 0.912802 0.103258 -0.395134
2700.00000000 -21940.00000000 -590.00000000 185 7 159 0.000000 0.000000 0.000000 0.000000 -60.708740 0.000000 157.000000 0.881860 0.250035 -0.399757
2690.00000000 -21960.00000000 -540.00000000 185 7 159 0.000000 0.000000 0.000000 0.000000 -60.708740 0.000000 157.000000 0.978285 0.064090 -0.197108
2700.00000000 -22110.00000000 -450.00000000 185 7 159 0.000000 0.000000 0.000000 0.000000 -60.708740 0.000000 157.000000 0.651913 0.757014 -0.044029
2730.00000000 -22100.00000000 -500.00000000 185 7 159 0.000000 0.000000 0.000000 0.000000 -60.708740 0.000000 157.000000 0.542870 0.816586 -0.196163
2700.00000000 -22100.00000000 -620.00000000 185 7 159 0.000000 0.000000 0.000000 0.000000 -60.708740 0.000000 157.000000 0.765245 0.381810 -0.518287
2710.00000000 -22100.00000000 -530.00000000 185 7 159 0.000000 0.000000 0.000000 0.000000 -60.708740 0.000000 157.000000 0.544573 0.795673 -0.265224
2670.00000000 -21940.00000000 -600.00000000 185 7 159 0.000000 0.000000 0.000000 0.000000 -60.708740 0.000000 157.000000 0.840645 -0.190987 -0.506793
2660.00000000 -21980.00000000 -580.00000000 185 7 159 0.000000 0.000000 0.000000 0.000000 -60.708740 0.000000 157.000000 0.887539 0.452826 -0.084992
2680.00000000 -21960.00000000 -650.00000000 185 7 159 0.000000 0.000000 0.000000 0.000000 -60.708740 0.000000 157.000000 0.992741 0.118421 -0.021028
2680.00000000 -21970.00000000 -620.00000000 185 7 159 0.000000 0.000000 0.000000 0.000000 -60.708740 0.000000 157.000000 0.920496 0.386100 -0.060119
2680.00000000 -22010.00000000 -650.00000000 185 7 159 0.000000 0.000000 0.000000 0.000000 -60.708740 0.000000 157.000000 0.856153 0.366923 -0.363826
2670.00000000 -22070.00000000 -560.00000000 185 7 159 0.000000 0.000000 0.000000 0.000000 -60.708740 0.000000 157.000000 0.783632 0.275927 -0.556584
2660.00000000 -22030.00000000 -640.00000000 185 7 159 0.000000 0.000000 0.000000 0.000000 -60.708740 0.000000 157.000000 0.887092 0.346732 -0.304704
2650.00000000 -22020.00000000 -670.00000000 185 7 159 0.000000 0.000000 0.000000 0.000000 -60.708740 0.000000 157.000000 0.808304 0.587730 0.034901
2650.00000000 -22030.00000000 -720.00000000 185 7 159 0.000000 0.000000 0.000000 0.000000 -60.708740 0.000000 157.000000 0.576766 0.814841 -0.058102
3200.00000000 -21760.00000000 -170.00000000 185 7 159 0.000000 0.000000 0.000000 0.000000 -60.708740 0.000000 157.000000 0.345043 0.922463 0.173226
3200.00000000 -21750.00000000 -300.00000000 185 7 159 0.000000 0.000000 0.000000 0.000000 -60.708740 0.000000 157.000000 0.314973 0.942238 0.113926
3200.00000000 -21750.00000000 -290.00000000 185 7 159 0.000000 0.000000 0.000000 0.000000 -60.708740 0.000000 157.000000 0.469829 0.882749 0.003970
3210.00000000 -21760.00000000 -280.00000000 185 7 159 0.000000 0.000000 0.000000 0.000000 -60.708740 0.000000 157.000000 0.546133 0.832817 -0.090305
3220.00000000 -21760.00000000 -340.00000000 185 7 159 0.000000 0.000000 0.000000 0.000000 -60.708740 0.000000 157.000000 0.321133 0.848599 0.420421
3300.00000000 -21920.00000000 -70.00000000 185 7 159 0.000000 0.000000 0.000000 0.000000 -60.708740 0.000000 157.000000 0.053799 0.995838 0.073562
3290.00000000 -21870.00000000 -150.00000000 185 7 159 0.000000 0.000000 0.000000 0.000000 -60.708740 0.000000 157.000000 0.467948 0.883302 -0.028320
3200.00000000 -21770.00000000 -70.00000000 185 7 159 0.000000 0.000000 0.000000 0.000000 -60.708740 0.000000 157.000000 0.190307 0.951533 0.241595
3220.00000000 -21790.00000000 -260.00000000 185 7 159 0.000000 0.000000 0.000000 0.000000 -60.708740 0.000000 157.000000 0.495574 0.824921 0.271867
3240.00000000 -21800.00000000 -340.00000000 185 7 159 0.000000 0.000000 0.000000 0.000000 -60.708740 0.000000 157.000000 0.420033 0.877435 0.231691
3220.00000000 -21770.00000000 -330.00000000 185 7 159 0.000000 0.000000 0.000000 0.000000 -60.708740 0.000000 157.000000 0.367416 0.800615 0.473309
3250.00000000 -21810.00000000 -320.00000000 185 7 159 0.000000 0.000000 0.000000 0.000000 -60.708740 0.000000 157.000000 0.736980 0.669582 -0.092306
3190.00000000 -21760.00000000 -180.00000000 185 7 159 0.000000 0.000000 0.000000 0.000000 -60.708740 0.000000 157.000000 0.034474 0.993074 0.112319
3080.00000000 -21700.00000000 -70.00000000 185 7 159 0.000000 0.000000 0.000000 0.000000 -60.708740 0.000000 157.000000 0.071684 0.944931 0.319322
3080.00000000 -21700.00000000 -40.00000000 185 7 159 0.000000 0.000000 0.000000 0.000000 -60.708740 0.000000 157.000000 -0.320681 0.947186 0.001238
3030.00000000 -21690.00000000 -70.00000000 185 7 159 0.000000 0.000000 0.000000 0.000000 -60.708740 0.000000 157.000000 0.028775 0.954595 0.296513
3120.00000000 -21710.00000000 -270.00000000 185 7 159 0.000000 0.000000 0.000000 0.000000 -60.708740 0.000000 157.000000 -0.090289 0.965200 0.245433
3180.00000000 -21730.00000000 -220.00000000 185 7 159 0.000000 0.000000 0.000000 0.000000 -60.708740 0.000000 157.000000 0.249451 0.966776 -0.055847
3170.00000000 -21720.00000000 -250.00000000 185 7 159 0.000000 0.000000 0.000000 0.000000 -60.708740 0.000000 157.000000 -0.022571 0.975291 0.219767
3180.00000000 -21730.00000000 -330.00000000 185 7 159 0.000000 0.000000 0.000000 0.000000 -60.708740 0.000000 157.000000 0.651264 0.739726 0.169298
3150.00000000 -21700.00000000 -350.00000000 185 7 159 0.000000 0.000000 0.000000 0.000000 -60.708740 0.000000 157.000000 0.385169 0.877580 0.285478
3070.00000000 -21710.00000000 -200.00000000 185 7 159 0.000000 0.000000 0.000000 0.000000 -60.708740 0.000000 157.000000 -0.281851 0.881725 0.378313
3040.00000000 -21700.00000000 -200.00000000 185 7 159 0.000000 0.000000 0.000000 0.000000 -60.708740 0.000000 157.000000 0.040473 0.822021 0.568018
3030.00000000 -21700.00000000 -270.00000000 185 7 159 0.000000 0.000000 0.000000 0.000000 -60.708740 0.000000 157.000000 -0.325291 0.716935 0.616596
3100.00000000 -21710.00000000 -240.00000000 185 7 159 0.000000 0.000000 0.000000 0.000000 -60.708740 0.000000 157.000000 -0.015247 0.780372 0.625129
3030.00000000 -21720.00000000 -310.00000000 185 7 159 0.000000 0.000000 0.000000 0.000000 -60.708740 0.000000 157.000000 -0.106765 0.993903 -0.027517
3060.00000000 -21690.00000000 -350.00000000 185 7 159 0.000000 0.000000 0.000000 0.000000 -60.708740 0.000000 157.000000 0.099049 0.960905 0.258557
3190.00000000 -21770.00000000 -100.00000000 185 7 159 0.000000 0.000000 0.000000 0.000000 -60.708740 0.000000 157.000000 0.428493 0.870517 0.242061
3210.00000000 -21720.00000000 -480.00000000 185 7 159 0.000000 0.000000 0.000000 0.000000 -60.708740 0.000000 157.000000 0.352412 0.929333 -0.110214
3200.00000000 -21710.00000000 -380.00000000 185 7 159 0.000000 0.000000 0.000000 0.000000 -60.708740 0.000000 157.000000 0.400093 0.911551 0.094867
3220.00000000 -21750.00000000 -430.00000000 185 7 159 0.000000 0.000000 0.000000 0.000000 -60.708740 0.000000 157.000000 0.493646 0.823781 0.278746
3230.00000000 -21750.00000000 -410.00000000 185 7 159 0.000000 0.000000 0.000000 0.000000 -60.708740 0.000000 157.000000 0.598803 0.774287 0.204732
3210.00000000 -21720.00000000 -480.00000000 185 7 159 0.000000 0.000000 0.000000 0.000000 -60.708740 0.000000 157.000000 0.352412 0.929333 -0.110214
3190.00000000 -21730.00000000 -430.00000000 185 7 159 0.000000 0.000000 0.000000 0.000000 -60.708740 0.000000 157.000000 0.498200 0.866018 0.042546
3190.00000000 -21730.00000000 -430.00000000 185 7 159 0.000000 0.000000 0.000000 0.000000 -60.708740 0.000000 157.000000 0.498200 0.866018 0.042546
3190.00000000 -21730.00000000 -360.00000000 185 7 159 0.000000 0.000000 0.000000 0.000000 -60.708740 0.000000 157.000000 0.101975 0.970652 0.217799
3180.00000000 -21730.00000000 -420.00000000 185 7 159 0.000000 0.000000 0.000000 0.000000 -60.708740 0.000000 157.000000 0.634605 0.769872 0.067634
3170.00000000 -21720.00000000 -360.00000000 185 7 159 0.000000 0.000000 0.000000 0.000000 -60.708740 0.000000 157.000000 0.427163 0.903562 -0.033268
3120.00000000 -21700.00000000 -420.00000000 185 7 159 0.000000 0.000000 0.000000 0.000000 -60.708740 0.000000 157.000000 0.114894 0.983248 -0.141501
3170.00000000 -21720.00000000 -400.00000000 185 7 159 0.000000 0.000000 0.000000 0.000000 -60.708740 0.000000 157.000000 0.667081 0.722288 0.182489
3180.00000000 -21700.00000000 -500.00000000 185 7 159 0.000000 0.000000 0.000000 0.000000 -60.708740 0.000000 157.000000 0.440960 0.889009 0.123355
3170.00000000 -21690.00000000 -500.00000000 185 7 159 0.000000 0.000000 0.000000 0.000000 -60.708740 0.000000 157.000000 0.613750 0.789499 -0.001373
3160.00000000 -21690.00000000 -520.00000000 185 7 159 0.000000 0.000000 0.000000 0.000000 -60.708740 0.000000 157.000000 0.267760 0.952481 0.145203
3060.00000000 -21670.00000000 -510.00000000 185 7 159 0.000000 0.000000 0.000000 0.000000 -60.708740 0.000000 157.000000 -0.048068 0.936680 0.346871
3040.00000000 -21700.00000000 -410.00000000 185 7 159 0.000000 0.000000 0.000000 0.000000 -60.708740 0.000000 157.000000 -0.379557 0.888610 0.257503
3080.00000000 -21700.00000000 -370.00000000 185 7 159 0.000000 0.000000 0.000000 0.000000 -60.708740 0.000000 157.000000 -0.044280 0.996845 -0.065880
3060.00000000 -21690.00000000 -380.00000000 185 7 159 0.000000 0.000000 0.000000 0.000000 -60.708740 0.000000 157.000000 -0.134629 0.968048 0.211560
3090.00000000 -21680.00000000 -480.00000000 185 7 159 0.000000 0.000000 0.000000 0.000000 -60.708740 0.000000 157.000000 0.079851 0.946436 0.312861
3100.00000000 -21690.00000000 -450.00000000 185 7 159 0.000000 0.000000 0.000000 0.000000 -60.708740 0.000000 157.000000 0.114714 0.971916 0.205476
3100.00000000 -21680.00000000 -500.00000000 185 7 159 0.000000 0.000000 0.000000 0.000000 -60.708740 0.000000 157.000000 0.291545 0.938193 0.186533
3090.00000000 -21710.00000000 -460.00000000 185 7 159 0.000000 0.000000 0.000000 0.000000 -60.708740 0.000000 157.000000 0.115675 0.948002 0.296500
3100.00000000 -21680.00000000 -520.00000000 185 7 159 0.000000 0.000000 0.000000 0.000000 -60.708740 0.000000 157.000000 0.300370 0.952238 0.054961
3100.00000000 -21680.00000000 -490.00000000 185 7 159 0.000000 0.000000 0.000000 0.000000 -60.708740 0.000000 157.000000 0.357093 0.918844 0.167961
3180.00000000 -21710.00000000 -540.00000000 185 7 159 0.000000 0.000000 0.000000 0.000000 -60.708740 0.000000 157.000000 0.314746 0.949175 0.001234
3150.00000000 -21690.00000000 -550.00000000 185 7 159 0.000000 0.000000 0.000000 0.000000 -60.708740 0.000000 157.000000 0.393280 0.898303 -0.195914
3080.00000000 -21670.00000000 -560.00000000 185 7 159 0.000000 0.000000 0.000000 0.000000 -60.708740 0.000000 157.000000 0.324319 0.911874 -0.251602
3100.00000000 -21670.00000000 -600.00000000 185 7 159 0.000000 0.000000 0.000000 0.000000 -60.708740 0.000000 157.000000 0.029192 0.999573 -0.001007
3070.00000000 -21680.00000000 -540.00000000 185 7 159 0.000000 0.000000 0.000000 0.000000 -60.708740 0.000000 157.000000 -0.084033 0.955394 0.283128
3030.00000000 -21620.00000000 -700.00000000 185 7 159 0.000000 0.000000 0.000000 0.000000 -60.708740 0.000000 157.000000 0.533493 0.845716 -0.012217
3020.00000000 -21710.00000000 -50.00000000 185 7 159 0.000000 0.000000 0.000000 0.000000 -60.708740 0.000000 157.000000 0.630146 -0.747815 -0.209017
3000.00000000 -21700.00000000 -70.00000000 185 7 159 0.000000 0.000000 0.000000 0.000000 -60.708740 0.000000 157.000000 -0.340495 0.760062 0.553506
2950.00000000 -21710.00000000 -110.00000000 185 7 159 0.000000 0.000000 0.000000 0.000000 -60.708740 0.000000 157.000000 -0.412130 0.793553 0.447686
2890.00000000 -21720.00000000 -140.00000000 185 7 159 0.000000 0.000000 0.000000 0.000000 -60.708740 0.000000 157.000000 -0.703562 0.706463 0.076884
3020.00000000 -21700.00000000 -220.00000000 185 7 159 0.000000 0.000000 0.000000 0.000000 -60.708740 0.000000 157.000000 -0.247134 0.914829 0.319395
3010.00000000 -21690.00000000 -250.00000000 185 7 159 0.000000 0.000000 0.000000 0.000000 -60.708740 0.000000 157.000000 -0.252184 0.964380 0.079837
3020.00000000 -21700.00000000 -220.00000000 185 7 159 0.000000 0.000000 0.000000 0.000000 -60.708740 0.000000 157.000000 -0.247134 0.914829 0.319395
2950.00000000 -21710.00000000 -320.00000000 185 7 159 0.000000 0.000000 0.000000 0.000000 -60.708740 0.000000 157.000000 -0.595627 0.779368 0.194459
3020.00000000 -21700.00000000 -280.00000000 185 7 159 0.000000 0.000000 0.000000 0.000000 -60.708740 0.000000 157.000000 -0.165118 0.897378 0.409205
2910.00000000 -21740.00000000 -220.00000000 185 7 159 0.000000 0.000000 0.000000 0.000000 -60.708740 0.000000 157.000000 -0.558804 0.785474 0.266022
2920.00000000 -21720.00000000 -220.00000000 185 7 159 0.000000 0.000000 0.000000 0.000000 -60.708740 0.000000 157.000000 -0.344325 0.831725 0.435516
2840.00000000 -21750.00000000 -240.00000000 185 7 159 0.000000 0.000000 0.000000 0.000000 -60.708740 0.000000 157.000000 -0.278908 0.789452 0.546786
2830.00000000 -21740.00000000 -240.00000000 185 7 159 0.000000 0.000000 0.000000 0.000000 -60.708740 0.000000 157.000000 -0.487998 0.765454 0.419449
2790.00000000 -21770.00000000 -350.00000000 185 7 159 0.000000 0.000000 0.000000 0.000000 -60.708740 0.000000 157.000000 0.820065 -0.299488 -0.487648
2790.00000000 -21780.00000000 -350.00000000 185 7 159 0.000000 0.000000 0.000000 0.000000 -60.708740 0.000000 157.000000 -0.667500 0.692989 0.272416
2770.00000000 -21820.00000000 -220.00000000 185 7 159 0.000000 0.000000 0.000000 0.000000 -60.708740 0.000000 157.000000 0.943312 -0.202433 -0.263026
2720.00000000 -21810.00000000 -290.00000000 185 7 159 0.000000 0.000000 0.000000 0.000000 -60.708740 0.000000 157.000000 0.924882 -0.356996 -0.130945
2750.00000000 -21840.00000000 -290.00000000 185 7 159 0.000000 0.000000 0.000000 0.000000 -60.708740 0.000000 157.000000 0.819139 -0.405593 -0.405593
2720.00000000 -21890.00000000 -270.00000000 185 7 159 0.000000 0.000000 0.000000 0.000000 -60.708740 0.000000 157.000000 0.972103 -0.135613 -0.191379
2710.00000000 -21900.00000000 -310.00000000 185 7 159 0.000000 0.000000 0.000000 0.000000 -60.708740 0.000000 157.000000 0.827282 0.143553 -0.543135
2710.00000000 -21910.00000000 -310.00000000 185 7 159 0.000000 0.000000 0.000000 0.000000 -60.708740 0.000000 157.000000 0.840974 -0.266951 -0.470637
2710.00000000 -21910.00000000 -280.00000000 185 7 159 0.000000 0.000000 0.000000 0.000000 -60.708740 0.000000 157.000000 0.947115 0.011231 -0.320697
2710.00000000 -21910.00000000 -330.00000000 185 7 159 0.000000 0.000000 0.000000 0.000000 -60.708740 0.000000 157.000000 0.959426 -0.126618 -0.251931
2960.00000000 -21670.00000000 -460.00000000 185 7 159 0.000000 0.000000 0.000000 0.000000 -60.708740 0.000000 157.000000 -0.449520 0.892290 0.041847
2960.00000000 -21710.00000000 -390.00000000 185 7 159 0.000000 0.000000 0.000000 0.000000 -60.708740 0.000000 157.000000 -0.238919 0.969295 0.058182
2950.00000000 -21700.00000000 -370.00000000 185 7 159 0.000000 0.000000 0.000000 0.000000 -60.708740 0.000000 157.000000 -0.611248 0.780791 0.129388
2980.00000000 -21690.00000000 -380.00000000 185 7 159 0.000000 0.000000 0.000000 0.000000 -60.708740 0.000000 157.000000 -0.208186 0.973610 0.093497
2960.00000000 -21690.00000000 -460.00000000 185 7 159 0.000000 0.000000 0.000000 0.000000 -60.708740 0.000000 157.000000 0.072734 0.896137 0.437776
2990.00000000 -21690.00000000 -460.00000000 185 7 159 0.000000 0.000000 0.000000 0.000000 -60.708740 0.000000 157.000000 -0.238732 0.963959 0.117430
2980.00000000 -21690.00000000 -470.00000000 185 7 159 0.000000 0.000000 0.000000 0.000000 -60.708740 0.000000 157.000000 -0.429093 0.898456 0.093039
2960.00000000 -21700.00000000 -460.00000000 185 7 159 0.000000 0.000000 0.000000 0.000000 -60.708740 0.000000 157.000000 -0.037666 0.931270 0.362377
2910.00000000 -21670.00000000 -520.00000000 185 7 159 0.000000 0.000000 0.000000 0.000000 -60.708740 0.000000 157.000000 -0.379601 0.923030 0.062601
2870.00000000 -21710.00000000 -380.00000000 185 7 159 0.000000 0.000000 0.000000 0.000000 -60.708740 0.000000 157.000000 0.657352 -0.733611 -0.172345
2900.00000000 -21740.00000000 -380.00000000 185 7 159 0.000000 0.000000 0.000000 0.000000 -60.708740 0.000000 157.000000 0.653292 -0.439427 -0.616534
2910.00000000 -21730.00000000 -360.00000000 185 7 159 0.000000 0.000000 0.000000 0.000000 -60.708740 0.000000 157.000000 -0.450684 0.553793 0.700141
2910.00000000 -21710.00000000 -440.00000000 185 7 159 0.000000 0.000000 0.000000 0.000000 -60.708740 0.000000 157.000000 -0.300049 0.920245 0.251237
2930.00000000 -21700.00000000 -490.00000000 185 7 159 0.000000 0.000000 0.000000 0.000000 -60.708740 0.000000 157.000000 -0.264503 0.944262 0.195979
2930.00000000 -21690.00000000 -530.00000000 185 7 159 0.000000 0.000000 0.000000 0.000000 -60.708740 0.000000 157.000000 -0.444897 0.867324 0.223197
2830.00000000 -21760.00000000 -430.00000000 185 7 159 0.000000 0.000000 0.000000 0.000000 -60.708740 0.000000 157.000000 -0.680704 0.714207 0.162943
2830.00000000 -21740.00000000 -440.00000000 185 7 159 0.000000 0.000000 0.000000 0.000000 -60.708740 0.000000 157.000000 -0.680486 0.729608 0.067904
2840.00000000 -21730.00000000 -430.00000000 185 7 159 0.000000 0.000000 0.000000 0.000000 -60.708740 0.000000 157.000000 -0.484720 0.816287 0.314200
2850.00000000 -21730.00000000 -460.00000000 185 7 159 0.000000 0.000000 0.000000 0.000000 -60.708740 0.000000 157.000000 -0.662587 0.712712 0.230261
2820.00000000 -21760.00000000 -470.00000000 185 7 159 0.000000 0.000000 0.000000 0.000000 -60.708740 0.000000 157.000000 -0.586295 0.643412 0.492219
2830.00000000 -21720.00000000 -530.00000000 185 7 159 0.000000 0.000000 0.000000 0.000000 -60.708740 0.000000 157.000000 -0.325489 0.710893 0.623448
2790.00000000 -21740.00000000 -640.00000000 185 7 159 0.000000 0.000000 0.000000 0.000000 -60.708740 0.000000 157.000000 0.676210 -0.729246 -0.104599
2800.00000000 -21740.00000000 -670.00000000 185 7 159 0.000000 0.000000 0.000000 0.000000 -60.708740 0.000000 157.000000 0.341477 -0.814780 -0.468538
2810.00000000 -21750.00000000 -670.00000000 185 7 159 0.000000 0.000000 0.000000 0.000000 -60.708740 0.000000 157.000000 -0.657559 0.728397 0.192494
2780.00000000 -21780.00000000 -400.00000000 185 7 159 0.000000 0.000000 0.000000 0.000000 -60.708740 0.000000 157.000000 0.533841 -0.361844 -0.764253
2810.00000000 -21770.00000000 -370.00000000 185 7 159 0.000000 0.000000 0.000000 0.000000 -60.708740 0.000000 157.000000 -0.723133 0.661194 0.199752
2780.00000000 -21790.00000000 -460.00000000 185 7 159 0.000000 0.000000 0.000000 0.000000 -60.708740 0.000000 157.000000 0.763904 -0.637809 -0.098237
2800.00000000 -21770.00000000 -470.00000000 185 7 159 0.000000 0.000000 0.000000 0.000000 -60.708740 0.000000 157.000000 0.775445 -0.612827 -0.152078
2770.00000000 -21800.00000000 -380.00000000 185 7 159 0.000000 0.000000 0.000000 0.000000 -60.708740 0.000000 157.000000 0.845730 -0.425201 -0.322405
2730.00000000 -21830.00000000 -400.00000000 185 7 159 0.000000 0.000000 0.000000 0.000000 -60.708740 0.000000 157.000000 0.900250 -0.019829 -0.434922
2770.00000000 -21780.00000000 -420.00000000 185 7 159 0.000000 0.000000 0.000000 0.000000 -60.708740 0.000000 157.000000 0.810074 -0.530202 -0.250330
2730.00000000 -21800.00000000 -510.00000000 185 7 159 0.000000 0.000000 0.000000 0.000000 -60.708740 0.000000 157.000000 0.701902 -0.394717 -0.592901
2770.00000000 -21800.00000000 -520.00000000 185 7 159 0.000000 0.000000 0.000000 0.000000 -60.708740 0.000000 157.000000 0.590975 -0.437821 -0.677541
2690.00000000 -21930.00000000 -400.00000000 185 7 159 0.000000 0.000000 0.000000 0.000000 -60.708740 0.000000 157.000000 0.721339 -0.350085 -0.597588
2700.00000000 -21850.00000000 -410.00000000 185 7 159 0.000000 0.000000 0.000000 0.000000 -60.708740 0.000000 157.000000 0.833601 -0.208021 -0.511700
2730.00000000 -21850.00000000 -470.00000000 185 7 159 0.000000 0.000000 0.000000 0.000000 -60.708740 0.000000 157.000000 0.950261 -0.303825 -0.068522
2740.00000000 -21840.00000000 -530.00000000 185 7 159 0.000000 0.000000 0.000000 0.000000 -60.708740 0.000000 157.000000 0.863483 -0.259500 -0.432500
2760.00000000 -21780.00000000 -660.00000000 185 7 159 0.000000 0.000000 0.000000 0.000000 -60.708740 0.000000 157.000000 0.790385 -0.583270 -0.187317
2750.00000000 -21790.00000000 -690.00000000 185 7 159 0.000000 0.000000 0.000000 0.000000 -60.708740 0.000000 157.000000 0.677706 -0.120647 -0.725368
2720.00000000 -21820.00000000 -620.00000000 185 7 159 0.000000 0.000000 0.000000 0.000000 -60.708740 0.000000 157.000000 0.980187 0.041584 -0.193661
2740.00000000 -21770.00000000 -640.00000000 185 7 159 0.000000 0.000000 0.000000 0.000000 -60.708740 0.000000 157.000000 -0.663138 0.139846 0.735317
2760.00000000 -21770.00000000 -660.00000000 185 7 159 0.000000 0.000000 0.000000 0.000000 -60.708740 0.000000 157.000000 0.570395 -0.597476 -0.563625
2700.00000000 -21880.00000000 -570.00000000 185 7 159 0.000000 0.000000 0.000000 0.000000 -60.708740 0.000000 157.000000 0.955908 -0.018549 -0.293079
2740.00000000 -21850.00000000 -530.00000000 185 7 159 0.000000 0.000000 0.000000 0.000000 -60.708740 0.000000 157.000000 0.959170 -0.179098 -0.218898
2700.00000000 -21880.00000000 -570.00000000 185 7 159 0.000000 0.000000 0.000000 0.000000 -60.708740 0.000000 157.000000 0.955908 -0.018549 -0.293079
2690.00000000 -21860.00000000 -630.00000000 185 7 159 0.000000 0.000000 0.000000 0.000000 -60.708740 0.000000 157.000000 0.955024 -0.270041 -0.122506
2700.00000000 -21850.00000000 -680.00000000 185 7 159 0.000000 0.000000 0.000000 0.000000 -60.708740 0.000000 157.000000 0.974954 -0.049656 -0.216791
2670.00000000 -21910.00000000 -620.00000000 185 7 159 0.000000 0.000000 0.000000 0.000000 -60.708740 0.000000 157.000000 0.995081 -0.042977 -0.089260
2670.00000000 -21900.00000000 -650.00000000 185 7 159 0.000000 0.000000 0.000000 0.000000 -60.708740 0.000000 157.000000 0.979675 0.027050 -0.198758
2760.00000000 -21730.00000000 -770.00000000 185 7 159 0.000000 0.000000 0.000000 0.000000 -60.708740 0.000000 157.000000 0.808313 -0.404957 -0.427365
2730.00000000 -21730.00000000 -820.00000000 185 7 159 0.000000 0.000000 0.000000 0.000000 -60.708740 0.000000 157.000000 0.916265 -0.344493 -0.204409
2700.00000000 -21840.00000000 -700.00000000 185 7 159 0.000000 0.000000 0.000000 0.000000 -60.708740 0.000000 157.000000 0.926784 -0.019335 -0.375096
2730.00000000 -21770.00000000 -790.00000000 185 7 159 0.000000 0.000000 0.000000 0.000000 -60.708740 0.000000 157.000000 -0.615610 0.474707 0.629029
2700.00000000 -21840.00000000 -750.00000000 185 7 159 0.000000 0.000000 0.000000 0.000000 -60.708740 0.000000 157.000000 0.858241 -0.270782 -0.436005
2670.00000000 -21870.00000000 -750.00000000 185 7 159 0.000000 0.000000 0.000000 0.000000 -60.708740 0.000000 157.000000 0.994837 -0.047584 -0.089635
2670.00000000 -21840.00000000 -780.00000000 185 7 159 0.000000 0.000000 0.000000 0.000000 -60.708740 0.000000 157.000000 0.988083 -0.066494 -0.138822
2670.00000000 -21840.00000000 -720.00000000 185 7 159 0.000000 0.000000 0.000000 0.000000 -60.708740 0.000000 157.000000 0.990366 0.074940 -0.116446
2670.00000000 -21880.00000000 -720.00000000 185 7 159 0.000000 0.000000 0.000000 0.000000 -60.708740 0.000000 157.000000 0.998590 0.044963 0.028232
2690.00000000 -21950.00000000 -280.00000000 185 7 159 0.000000 0.000000 0.000000 0.000000 -60.708740 0.000000 157.000000 0.983271 0.159677 -0.087642
2710.00000000 -21960.00000000 -280.00000000 185 7 159 0.000000 0.000000 0.000000 0.000000 -60.708740 0.000000 157.000000 0.800612 -0.170375 -0.574450
2710.00000000 -21950.00000000 -280.00000000 185 7 159 0.000000 0.000000 0.000000 0.000000 -60.708740 0.000000 157.000000 0.674380 -0.341272 -0.654786
2690.00000000 -22040.00000000 -320.00000000 185 7 159 0.000000 0.000000 0.000000 0.000000 -60.708740 0.000000 157.000000 0.802412 0.475681 -0.360365
2690.00000000 -22020.00000000 -460.00000000 185 7 159 0.000000 0.000000 0.000000 0.000000 -60.708740 0.000000 157.000000 0.692260 0.169627 -0.701429
2700.00000000 -22070.00000000 -510.00000000 185 7 159 0.000000 0.000000 0.000000 0.000000 -60.708740 0.000000 157.000000 0.777567 0.626334 0.055642
2690.00000000 -22070.00000000 -520.00000000 185 7 159 0.000000 0.000000 0.000000 0.000000 -60.708740 0.000000 157.000000 0.692971 0.720857 -0.012549
2700.00000000 -22070.00000000 -460.00000000 185 7 159 0.000000 0.000000 0.000000 0.000000 -60.708740 0.000000 157.000000 0.708067 0.599639 -0.372926
2700.00000000 -21960.00000000 -530.00000000 185 7 159 0.000000 0.000000 0.000000 0.000000 -60.708740 0.000000 157.000000 0.671150 0.341291 -0.658087
2660.00000000 -21950.00000000 -330.00000000 185 7 159 0.000000 0.000000 0.000000 0.000000 -60.708740 0.000000 157.000000 -0.664262 0.006934 0.747468
2670.00000000 -21970.00000000 -450.00000000 185 7 159 0.000000 0.000000 0.000000 0.000000 -60.708740 0.000000 157.000000 0.816762 -0.206099 -0.538910
2660.00000000 -22030.00000000 -640.00000000 185 7 159 0.000000 0.000000 0.000000 0.000000 -60.708740 0.000000 157.000000 0.887092 0.346732 -0.304704
2670.00000000 -22050.00000000 -660.00000000 185 7 159 0.000000 0.000000 0.000000 0.000000 -60.708740 0.000000 157.000000 0.879101 0.454707 0.142908
2660.00000000 -22030.00000000 -630.00000000 185 7 159 0.000000 0.000000 0.000000 0.000000 -60.708740 0.000000 157.000000 0.774875 0.630383 -0.046748
3220.00000000 -21760.00000000 -340.00000000 185 7 159 0.000000 0.000000 0.000000 0.000000 -60.708740 0.000000 157.000000 0.321133 0.848599 0.420421
3250.00000000 -21810.00000000 -80.00000000 185 7 159 0.000000 0.000000 0.000000 0.000000 -60.708740 0.000000 157.000000 0.385806 0.904994 0.179278
3290.00000000 -21870.00000000 -190.00000000 185 7 159 0.000000 0.000000 0.000000 0.000000 -60.708740 0.000000 157.000000 0.746388 0.664243 0.041073
3230.00000000 -21770.00000000 -250.00000000 185 7 159 0.000000 0.000000 0.000000 0.000000 -60.708740 0.000000 157.000000 0.421914 0.900919 0.101649
3260.00000000 -21800.00000000 -330.00000000 185 7 159 0.000000 0.000000 0.000000 0.000000 -60.708740 0.000000 157.000000 0.386280 0.868749 0.309940
3120.00000000 -21730.00000000 -160.00000000 185 7 159 0.000000 0.000000 0.000000 0.000000 -60.708740 0.000000 157.000000 0.176625 0.982700 0.055714
3080.00000000 -21710.00000000 -130.00000000 185 7 159 0.000000 0.000000 0.000000 0.000000 -60.708740 0.000000 157.000000 -0.011793 0.995963 0.088983
3150.00000000 -21700.00000000 -260.00000000 185 7 159 0.000000 0.000000 0.000000 0.000000 -60.708740 0.000000 157.000000 0.127248 0.879301 0.458952
3130.00000000 -21710.00000000 -330.00000000 185 7 159 0.000000 0.000000 0.000000 0.000000 -60.708740 0.000000 157.000000 0.135033 0.989091 -0.058861
3130.00000000 -21700.00000000 -300.00000000 185 7 159 0.000000 0.000000 0.000000 0.000000 -60.708740 0.000000 157.000000 -0.023827 0.988261 0.150906
3060.00000000 -21670.00000000 -230.00000000 185 7 159 0.000000 0.000000 0.000000 0.000000 -60.708740 0.000000 157.000000 -0.078423 0.995200 0.058541
3070.00000000 -21670.00000000 -250.00000000 185 7 159 0.000000 0.000000 0.000000 0.000000 -60.708740 0.000000 157.000000 -0.472648 0.802700 0.363698
3070.00000000 -21710.00000000 -210.00000000 185 7 159 0.000000 0.000000 0.000000 0.000000 -60.708740 0.000000 157.000000 -0.339682 0.919558 0.197556
3070.00000000 -21690.00000000 -290.00000000 185 7 159 0.000000 0.000000 0.000000 0.000000 -60.708740 0.000000 157.000000 -0.238974 0.889101 0.390373
3090.00000000 -21690.00000000 -280.00000000 185 7 159 0.000000 0.000000 0.000000 0.000000 -60.708740 0.000000 157.000000 0.011060 0.957327 0.288796
3040.00000000 -21690.00000000 -350.00000000 185 7 159 0.000000 0.000000 0.000000 0.000000 -60.708740 0.000000 157.000000 -0.155606 0.986287 -0.054989
3200.00000000 -21720.00000000 -460.00000000 185 7 159 0.000000 0.000000 0.000000 0.000000 -60.708740 0.000000 157.000000 0.475402 0.877771 0.059253
3210.00000000 -21740.00000000 -420.00000000 185 7 159 0.000000 0.000000 0.000000 0.000000 -60.708740 0.000000 157.000000 0.539479 0.840584 -0.048790
3200.00000000 -21740.00000000 -410.00000000 185 7 159 0.000000 0.000000 0.000000 0.000000 -60.708740 0.000000 157.000000 0.456495 0.863599 0.214029
3220.00000000 -21750.00000000 -380.00000000 185 7 159 0.000000 0.000000 0.000000 0.000000 -60.708740 0.000000 157.000000 0.364291 0.912869 -0.184288
3140.00000000 -21670.00000000 -440.00000000 185 7 159 0.000000 0.000000 0.000000 0.000000 -60.708740 0.000000 157.000000 0.131629 0.990076 0.049218
3180.00000000 -21730.00000000 -380.00000000 185 7 159 0.000000 0.000000 0.000000 0.000000 -60.708740 0.000000 157.000000 0.549866 0.794250 0.258484
3150.00000000 -21690.00000000 -370.00000000 185 7 159 0.000000 0.000000 0.000000 0.000000 -60.708740 0.000000 157.000000 0.066054 0.981198 0.181348
3130.00000000 -21690.00000000 -480.00000000 185 7 159 0.000000 0.000000 0.000000 0.000000 -60.708740 0.000000 157.000000 0.037842 0.999220 0.011250
3180.00000000 -21710.00000000 -460.00000000 185 7 159 0.000000 0.000000 0.000000 0.000000 -60.708740 0.000000 157.000000 0.491147 0.765275 0.416088
3130.00000000 -21680.00000000 -460.00000000 185 7 159 0.000000 0.000000 0.000000 0.000000 -60.708740 0.000000 157.000000 0.135412 0.965936 -0.220527
3190.00000000 -21720.00000000 -490.00000000 185 7 159 0.000000 0.000000 0.000000 0.000000 -60.708740 0.000000 157.000000 0.794123 0.586961 0.157624
3040.00000000 -21700.00000000 -430.00000000 185 7 159 0.000000 0.000000 0.000000 0.000000 -60.708740 0.000000 157.000000 -0.234253 0.971848 -0.025227
3080.00000000 -21680.00000000 -360.00000000 185 7 159 0.000000 0.000000 0.000000 0.000000 -60.708740 0.000000 157.000000 -0.178210 0.981948 0.063390
3050.00000000 -21690.00000000 -460.00000000 185 7 159 0.000000 0.000000 0.000000 0.000000 -60.708740 0.000000 157.000000 -0.121651 0.992181 -0.027902
3090.00000000 -21680.00000000 -480.00000000 185 7 159 0.000000 0.000000 0.000000 0.000000 -60.708740 0.000000 157.000000 0.079851 0.946436 0.312861
3030.00000000 -21630.00000000 -680.00000000 185 7 159 0.000000 0.000000 0.000000 0.000000 -60.708740 0.000000 157.000000 0.388313 0.768502 0.508544
3120.00000000 -21680.00000000 -560.00000000 185 7 159 0.000000 0.000000 0.000000 0.000000 -60.708740 0.000000 157.000000 0.098894 0.992351 0.073886
3130.00000000 -21690.00000000 -530.00000000 185 7 159 0.000000 0.000000 0.000000 0.000000 -60.708740 0.000000 157.000000 0.236395 0.935787 0.261573
3100.00000000 -21670.00000000 -600.00000000 185 7 159 0.000000 0.000000 0.000000 0.000000 -60.708740 0.000000 157.000000 0.029192 0.999573 -0.001007
2870.00000000 -21710.00000000 -270.00000000 185 7 159 0.000000 0.000000 0.000000 0.000000 -60.708740 0.000000 157.000000 -0.421709 0.869113 0.258467
2870.00000000 -21720.00000000 -230.00000000 185 7 159 0.000000 0.000000 0.000000 0.000000 -60.708740 0.000000 157.000000 -0.623724 0.682970 0.380159
2920.00000000 -21710.00000000 -270.00000000 185 7 159 0.000000 0.000000 0.000000 0.000000 -60.708740 0.000000 157.000000 -0.251197 0.706195 0.661959
2880.00000000 -21740.00000000 -190.00000000 185 7 159 0.000000 0.000000 0.000000 0.000000 -60.708740 0.000000 157.000000 -0.653529 0.707592 0.268726
2850.00000000 -21730.00000000 -200.00000000 185 7 159 0.000000 0.000000 0.000000 0.000000 -60.708740 0.000000 157.000000 0.772222 -0.432640 -0.465292
2810.00000000 -21770.00000000 -240.00000000 185 7 159 0.000000 0.000000 0.000000 0.000000 -60.708740 0.000000 157.000000 -0.591689 0.615289 0.520888
2780.00000000 -21770.00000000 -250.00000000 185 7 159 0.000000 0.000000 0.000000 0.000000 -60.708740 0.000000 157.000000 0.603859 -0.542965 -0.583561
2740.00000000 -21830.00000000 -240.00000000 185 7 159 0.000000 0.000000 0.000000 0.000000 -60.708740 0.000000 157.000000 0.893394 -0.206168 -0.399176
2770.00000000 -21770.00000000 -340.00000000 185 7 159 0.000000 0.000000 0.000000 0.000000 -60.708740 0.000000 157.000000 0.913470 -0.277381 -0.297713
2750.00000000 -21800.00000000 -330.00000000 185 7 159 0.000000 0.000000 0.000000 0.000000 -60.708740 0.000000 157.000000 0.845279 -0.020483 -0.533932
2720.00000000 -21870.00000000 -350.00000000 185 7 159 0.000000 0.000000 0.000000 0.000000 -60.708740 0.000000 157.000000 0.769621 -0.472230 -0.429746
2960.00000000 -21700.00000000 -410.00000000 185 7 159 0.000000 0.000000 0.000000 0.000000 -60.708740 0.000000 157.000000 -0.605064 0.773562 0.188412
3020.00000000 -21680.00000000 -520.00000000 185 7 159 0.000000 0.000000 0.000000 0.000000 -60.708740 0.000000 157.000000 -0.074299 0.965885 0.248083
2900.00000000 -21720.00000000 -380.00000000 185 7 159 0.000000 0.000000 0.000000 0.000000 -60.708740 0.000000 157.000000 -0.630860 0.762726 0.142356
2920.00000000 -21720.00000000 -360.00000000 185 7 159 0.000000 0.000000 0.000000 0.000000 -60.708740 0.000000 157.000000 -0.577559 0.706641 0.408759
2930.00000000 -21710.00000000 -460.00000000 185 7 159 0.000000 0.000000 0.000000 0.000000 -60.708740 0.000000 157.000000 -0.314335 0.914033 0.256393
2870.00000000 -21720.00000000 -480.00000000 185 7 159 0.000000 0.000000 0.000000 0.000000 -60.708740 0.000000 157.000000 -0.215289 0.894842 0.391036
2890.00000000 -21700.00000000 -570.00000000 185 7 159 0.000000 0.000000 0.000000 0.000000 -60.708740 0.000000 157.000000 -0.397568 0.895620 0.199512
2840.00000000 -21740.00000000 -430.00000000 185 7 159 0.000000 0.000000 0.000000 0.000000 -60.708740 0.000000 157.000000 -0.455141 0.514724 0.726571
2820.00000000 -21750.00000000 -470.00000000 185 7 159 0.000000 0.000000 0.000000 0.000000 -60.708740 0.000000 157.000000 0.712107 -0.379900 -0.590407
2850.00000000 -21730.00000000 -590.00000000 185 7 159 0.000000 0.000000 0.000000 0.000000 -60.708740 0.000000 157.000000 0.680911 -0.699609 -0.216583
2760.00000000 -21810.00000000 -380.00000000 185 7 159 0.000000 0.000000 0.000000 0.000000 -60.708740 0.000000 157.000000 -0.563591 0.657803 0.499661
2750.00000000 -21820.00000000 -400.00000000 185 7 159 0.000000 0.000000 0.000000 0.000000 -60.708740 0.000000 157.000000 0.795879 -0.384273 -0.467880
2710.00000000 -21890.00000000 -430.00000000 185 7 159 0.000000 0.000000 0.000000 0.000000 -60.708740 0.000000 157.000000 0.725621 -0.233515 -0.647260
2720.00000000 -21900.00000000 -460.00000000 185 7 159 0.000000 0.000000 0.000000 0.000000 -60.708740 0.000000 157.000000 0.802866 -0.423154 -0.419936
2740.00000000 -21820.00000000 -560.00000000 185 7 159 0.000000 0.000000 0.000000 0.000000 -60.708740 0.000000 157.000000 0.881140 -0.318903 -0.349131
2720.00000000 -21830.00000000 -540.00000000 185 7 159 0.000000 0.000000 0.000000 0.000000 -60.708740 0.000000 157.000000 0.950641 -0.240033 -0.196638
2740.00000000 -21820.00000000 -550.00000000 185 7 159 0.000000 0.000000 0.000000 0.000000 -60.708740 0.000000 157.000000 0.829357 -0.214568 -0.515875
2710.00000000 -21840.00000000 -630.00000000 185 7 159 0.000000 0.000000 0.000000 0.000000 -60.708740 0.000000 157.000000 0.807049 -0.434812 -0.399513
2750.00000000 -21790.00000000 -630.00000000 185 7 159 0.000000 0.000000 0.000000 0.000000 -60.708740 0.000000 157.000000 -0.725259 0.286581 0.625996
2730.00000000 -21780.00000000 -650.00000000 185 7 159 0.000000 0.000000 0.000000 0.000000 -60.708740 0.000000 157.000000 0.842338 -0.145535 -0.518927
2730.00000000 -21840.00000000 -630.00000000 185 7 159 0.000000 0.000000 0.000000 0.000000 -60.708740 0.000000 157.000000 0.853827 -0.407543 -0.323865
2730.00000000 -21780.00000000 -650.00000000 185 7 159 0.000000 0.000000 0.000000 0.000000 -60.708740 0.000000 157.000000 0.842338 -0.145535 -0.518927
2700.00000000 -21920.00000000 -530.00000000 185 7 159 0.000000 0.000000 0.000000 0.000000 -60.708740 0.000000 157.000000 0.836281 -0.191365 -0.513823
2700.00000000 -21860.00000000 -600.00000000 185 7 159 0.000000 0.000000 0.000000 0.000000 -60.708740 0.000000 157.000000 0.955838 -0.285344 -0.070376
2700.00000000 -21860.00000000 -680.00000000 185 7 159 0.000000 0.000000 0.000000 0.000000 -60.708740 0.000000 157.000000 0.927171 -0.263482 -0.266330
2720.00000000 -21860.00000000 -660.00000000 185 7 159 0.000000 0.000000 0.000000 0.000000 -60.708740 0.000000 157.000000 0.934275 -0.053724 -0.352482
2670.00000000 -21930.00000000 -600.00000000 185 7 159 0.000000 0.000000 0.000000 0.000000 -60.708740 0.000000 157.000000 0.856642 0.182612 -0.482511
2680.00000000 -21880.00000000 -740.00000000 185 7 159 0.000000 0.000000 0.000000 0.000000 -60.708740 0.000000 157.000000 0.777709 -0.154940 -0.609231
2730.00000000 -21730.00000000 -810.00000000 185 7 159 0.000000 0.000000 0.000000 0.000000 -60.708740 0.000000 157.000000 0.821145 -0.169633 -0.544928
2730.00000000 -21740.00000000 -820.00000000 185 7 159 0.000000 0.000000 0.000000 0.000000 -60.708740 0.000000 157.000000 0.863875 -0.162802 -0.476671
2690.00000000 -22000.00000000 -310.00000000 185 7 159 0.000000 0.000000 0.000000 0.000000 -60.708740 0.000000 157.000000 0.860095 0.436898 -0.263357
2710.00000000 -22060.00000000 -420.00000000 185 7 159 0.000000 0.000000 0.000000 0.000000 -60.708740 0.000000 157.000000 0.672407 0.538261 -0.508078
2690.00000000 -22000.00000000 -560.00000000 185 7 159 0.000000 0.000000 0.000000 0.000000 -60.708740 0.000000 157.000000 0.799529 0.535637 -0.271746
2700.00000000 -22110.00000000 -590.00000000 185 7 159 0.000000 0.000000 0.000000 0.000000 -60.708740 0.000000 157.000000 0.603634 0.770367 -0.205328
2660.00000000 -22060.00000000 -550.00000000 185 7 159 0.000000 0.000000 0.000000 0.000000 -60.708740 0.000000 157.000000 0.680055 0.563093 -0.469522
3100.00000000 -21700.00000000 0.00000000 185 7 159 0.000000 0.000000 0.000000 0.000000 -60.708740 0.000000 157.000000 -0.136269 0.759211 0.636419
3310.00000000 -21920.00000000 -80.00000000 185 7 159 0.000000 0.000000 0.000000 0.000000 -60.708740 0.000000 157.000000 0.261783 0.948117 -0.180400
